NaN             NaN             NaN             NaN             NaN             NaN             NaN             NaN             NaN             NaN             NaN             NaN             NaN             NaN             NaN             NaN             NaN             NaN             NaN             NaN             NaN             NaN             NaN             NaN             NaN             NaN   2.0000000e+00   2.0000000e+00   3.9000000e+01   4.0000000e+01   5.8000000e+01   8.4000000e+01   9.8000000e+01   9.9000000e+01   9.9000000e+01   9.9000000e+01   9.7000000e+01   1.0200000e+02   1.1900000e+02   1.3800000e+02   2.0100000e+02   3.9000000e+02   4.6600000e+02   6.5300000e+02   7.8400000e+02   8.0200000e+02   8.9100000e+02   9.3300000e+02   9.5400000e+02   1.0030000e+03   1.0060000e+03   1.0970000e+03   1.1870000e+03   1.0960000e+03   1.0760000e+03   1.0620000e+03   1.0020000e+03   7.1600000e+02   7.7800000e+02   1.0110000e+03   1.0140000e+03   1.1960000e+03   1.1940000e+03   1.1890000e+03   1.1200000e+03   1.1670000e+03   8.9600000e+02   7.8200000e+02   2.3800000e+02   5.2800000e+02   7.9500000e+02   8.9300000e+02   9.8300000e+02   8.5700000e+02   7.4100000e+02   8.0300000e+02   7.2500000e+02   5.0400000e+02   4.7800000e+02   9.3700000e+02   1.2140000e+03   1.5640000e+03   1.8340000e+03   2.0040000e+03   2.2450000e+03   2.3930000e+03   2.5840000e+03   2.5910000e+03   2.6160000e+03   2.6460000e+03   2.6180000e+03   2.5870000e+03   2.4910000e+03   2.1940000e+03   1.3020000e+03   1.3410000e+03   1.0150000e+03   4.1400000e+02   2.4700000e+02   2.2600000e+02   2.0900000e+02   1.9400000e+02   9.2000000e+01   9.2000000e+01   1.1800000e+02   5.2000000e+01   3.4200000e+02   1.5500000e+03   3.0060000e+03   4.0460000e+03   4.2420000e+03   4.0970000e+03   4.2020000e+03   4.2090000e+03   4.2400000e+03   4.2340000e+03   4.1890000e+03   4.0900000e+03   4.0120000e+03   3.9430000e+03   3.8980000e+03   3.8320000e+03   3.7780000e+03   3.7540000e+03   3.7490000e+03   3.7650000e+03   3.8110000e+03   3.7520000e+03   3.9900000e+03   3.7420000e+03   3.7770000e+03   3.9980000e+03   3.9970000e+03   3.9970000e+03   3.9370000e+03   3.8460000e+03   3.7670000e+03   3.7900000e+03   3.8970000e+03   3.9830000e+03   3.8030000e+03   3.6540000e+03   3.8250000e+03   3.9860000e+03   3.9850000e+03   3.8510000e+03   3.6570000e+03   3.7030000e+03   3.8810000e+03   3.9910000e+03   3.9820000e+03   3.9720000e+03   3.7890000e+03   3.7240000e+03   3.6240000e+03   3.6220000e+03   3.7820000e+03   3.8690000e+03   3.6370000e+03   1.7380000e+03   1.0570000e+03   1.4160000e+03   1.8430000e+03   1.8630000e+03   4.9900000e+02             NaN             NaN             NaN   8.0000000e+00   7.0000000e+00   5.0000000e+00   1.0000000e+01             NaN             NaN             NaN             NaN             NaN             NaN             NaN             NaN             NaN             NaN             NaN             NaN             NaN             NaN
NaN             NaN             NaN             NaN             NaN             NaN             NaN             NaN             NaN             NaN             NaN             NaN             NaN             NaN             NaN             NaN             NaN             NaN             NaN             NaN             NaN             NaN             NaN             NaN   1.0000000e+00   1.0000000e+00   2.0000000e+00   3.9000000e+01   4.0000000e+01   6.2000000e+01   8.1000000e+01   9.8000000e+01   9.8000000e+01   9.9000000e+01   9.8000000e+01   9.0000000e+01   9.2000000e+01   9.3000000e+01   1.0500000e+02   1.2800000e+02   1.7700000e+02   2.0600000e+02   4.0900000e+02   5.9300000e+02   7.5800000e+02   8.7900000e+02   9.3100000e+02   1.0020000e+03   1.0070000e+03   1.0110000e+03   1.1930000e+03   1.1950000e+03   1.2090000e+03   1.2040000e+03   1.2130000e+03   1.1960000e+03   1.1960000e+03   1.1970000e+03   1.1170000e+03   1.1980000e+03   1.1990000e+03   1.2110000e+03   1.2810000e+03   1.1710000e+03   1.1660000e+03   6.1100000e+02   1.3400000e+02   1.0700000e+02   1.3500000e+02   3.3600000e+02   6.0200000e+02   7.9200000e+02   9.7300000e+02   8.6900000e+02   7.1900000e+02   9.5600000e+02   9.5600000e+02   5.7100000e+02   1.0650000e+03   1.1150000e+03   1.1090000e+03   1.3990000e+03   1.6060000e+03   1.8960000e+03   2.0930000e+03   2.2880000e+03   2.3900000e+03   2.4910000e+03   2.5490000e+03   2.5540000e+03   2.5210000e+03   2.4670000e+03   2.5250000e+03   2.4950000e+03   2.4200000e+03   2.0710000e+03   1.9590000e+03   1.0350000e+03   1.0110000e+03   7.0400000e+02   5.1000000e+02   2.3100000e+02   2.1900000e+02   2.1900000e+02   1.5700000e+02   2.9400000e+02   3.6300000e+02   1.5400000e+03   2.8360000e+03   4.0550000e+03   4.2770000e+03   4.2170000e+03   4.2100000e+03   4.2480000e+03   4.2600000e+03   4.2430000e+03   4.1970000e+03   4.0880000e+03   3.9430000e+03   3.9340000e+03   3.9860000e+03   3.6730000e+03   3.7600000e+03   3.7110000e+03   3.6560000e+03   3.6520000e+03   3.6700000e+03   3.7170000e+03   3.7310000e+03   3.7710000e+03   3.9860000e+03   3.9910000e+03   3.9940000e+03   3.9950000e+03   3.9890000e+03   3.9500000e+03   3.9170000e+03   3.8920000e+03   3.9340000e+03   3.9850000e+03   3.8040000e+03   3.8030000e+03   3.6220000e+03   3.7500000e+03   3.9830000e+03   3.9850000e+03   3.9640000e+03   3.7660000e+03   3.7670000e+03   3.9070000e+03   3.9870000e+03   3.9770000e+03   3.9730000e+03   3.7490000e+03   3.6230000e+03   3.6340000e+03   3.8180000e+03   3.9490000e+03   3.6870000e+03   2.7500000e+03   1.4940000e+03   1.3590000e+03   1.3980000e+03   1.5270000e+03   5.1100000e+02             NaN             NaN   9.0000000e+00   9.0000000e+00   3.2000000e+01   4.2000000e+01   4.2000000e+01             NaN             NaN             NaN             NaN             NaN             NaN             NaN             NaN             NaN             NaN             NaN             NaN             NaN             NaN
NaN             NaN             NaN             NaN             NaN             NaN             NaN             NaN             NaN             NaN             NaN             NaN             NaN             NaN             NaN             NaN             NaN             NaN             NaN             NaN             NaN             NaN             NaN             NaN   2.0000000e+00   1.0000000e+00   3.9000000e+01   4.0000000e+01   5.9000000e+01   7.7000000e+01   9.8000000e+01   1.0000000e+02   9.9000000e+01   9.8000000e+01   9.2000000e+01   7.8000000e+01   9.3000000e+01   9.5000000e+01   1.0400000e+02   1.2700000e+02   1.9000000e+02   2.0800000e+02   3.7900000e+02   5.9300000e+02   7.8000000e+02   9.0800000e+02   1.0010000e+03   1.0080000e+03   1.1930000e+03   1.1970000e+03   1.2000000e+03   1.2420000e+03   1.2400000e+03   1.2570000e+03   1.3220000e+03   1.3870000e+03   1.3880000e+03   1.3870000e+03   1.3850000e+03   1.3060000e+03   1.2570000e+03   1.2320000e+03   1.1850000e+03   1.1110000e+03   9.7400000e+02   5.9800000e+02   1.0500000e+02   1.2800000e+02   8.3000000e+01   2.2600000e+02   5.9700000e+02   4.7000000e+02   9.0700000e+02   8.4500000e+02   7.7700000e+02   3.8600000e+02   1.6200000e+02   4.1400000e+02   6.0600000e+02   1.0740000e+03   1.1860000e+03   1.3120000e+03   1.4930000e+03   1.6700000e+03   1.8970000e+03   2.0920000e+03   2.2560000e+03   2.3890000e+03   2.3990000e+03   2.4590000e+03   2.5010000e+03   2.4880000e+03   2.5690000e+03   2.6180000e+03   2.5100000e+03   2.3780000e+03   2.3600000e+03   1.9790000e+03   1.6570000e+03   1.0360000e+03   9.6800000e+02   7.1700000e+02   5.1400000e+02   2.7100000e+02   2.9000000e+02   8.1100000e+02   1.1060000e+03   2.0650000e+03   3.0200000e+03   3.9650000e+03   4.1770000e+03   4.1830000e+03   4.2290000e+03   4.2430000e+03   4.2470000e+03   4.2320000e+03   4.1950000e+03   4.1010000e+03   4.0050000e+03   3.4560000e+03   3.0870000e+03   3.6790000e+03   3.9710000e+03   3.7150000e+03   3.7440000e+03   3.5780000e+03   3.5100000e+03   3.5200000e+03   3.5630000e+03   3.6530000e+03   3.7780000e+03   3.8820000e+03   3.9560000e+03   3.9940000e+03   4.0170000e+03   3.9890000e+03   3.9710000e+03   3.9430000e+03   3.9470000e+03   3.9580000e+03   3.9860000e+03   3.8250000e+03   3.8000000e+03   3.6180000e+03   3.7990000e+03   3.9820000e+03   3.7910000e+03   4.1140000e+03   4.0890000e+03   4.0750000e+03   3.9890000e+03   3.8620000e+03   3.9770000e+03   3.9860000e+03   3.8960000e+03   3.8240000e+03   3.9910000e+03   3.9690000e+03   3.9260000e+03   2.9830000e+03   2.0360000e+03   1.6270000e+03   1.2760000e+03   9.5000000e+02   3.6600000e+02   1.2000000e+01   1.1000000e+01   6.0000000e+00   3.9000000e+01   5.0000000e+01   4.9000000e+01   5.0000000e+00             NaN             NaN             NaN             NaN             NaN             NaN             NaN             NaN             NaN             NaN             NaN             NaN             NaN             NaN
NaN             NaN             NaN             NaN             NaN             NaN             NaN             NaN             NaN             NaN             NaN             NaN             NaN             NaN             NaN             NaN             NaN             NaN             NaN             NaN   1.0000000e+01   1.0000000e+01   1.0000000e+00   1.0000000e+00   1.0000000e+00   2.4000000e+01   4.0000000e+01   5.7000000e+01   7.0000000e+01   8.7000000e+01   9.8000000e+01   9.9000000e+01   1.0200000e+02   9.8000000e+01   9.2000000e+01   9.7000000e+01   9.9000000e+01   1.1000000e+02   1.2200000e+02   1.4500000e+02   1.9600000e+02   2.5000000e+02   3.9600000e+02   6.3800000e+02   8.5200000e+02   9.9500000e+02   1.0060000e+03   1.1930000e+03   1.1990000e+03   1.2500000e+03   1.2630000e+03   1.2790000e+03   1.2960000e+03   1.3330000e+03   1.3930000e+03   1.3940000e+03   1.4290000e+03   1.4280000e+03   1.3870000e+03   1.3820000e+03   1.1970000e+03   1.1910000e+03   1.1190000e+03   9.8500000e+02   7.5800000e+02   7.7100000e+02   2.8300000e+02   1.0400000e+02   2.1900000e+02   3.0300000e+02   4.7700000e+02   2.4400000e+02   6.9700000e+02   9.6400000e+02   8.1500000e+02   4.1200000e+02   3.1700000e+02   3.3300000e+02   5.4200000e+02   4.9500000e+02   1.0860000e+03   1.1860000e+03   1.4030000e+03   1.5530000e+03   1.6760000e+03   1.9000000e+03   2.0030000e+03   2.1960000e+03   2.2080000e+03   2.3980000e+03   2.4090000e+03   2.4910000e+03   2.5990000e+03   2.7770000e+03   2.5080000e+03   2.5860000e+03   2.3930000e+03   2.3770000e+03   2.0660000e+03   1.9830000e+03   1.6680000e+03   1.0570000e+03   1.0510000e+03   1.0530000e+03   1.0650000e+03   1.5210000e+03   2.0240000e+03   2.5440000e+03   3.7270000e+03   3.8870000e+03   4.1190000e+03   4.1460000e+03   4.1080000e+03   4.1560000e+03   4.1840000e+03   4.1920000e+03   4.1750000e+03   4.1250000e+03   3.9240000e+03   3.9090000e+03   2.7920000e+03   2.1880000e+03   3.0740000e+03   3.9630000e+03   3.9030000e+03   3.5950000e+03   3.3540000e+03   3.3370000e+03   3.3770000e+03   3.4760000e+03   3.6090000e+03   3.7430000e+03   3.8760000e+03   3.9710000e+03   4.0110000e+03   4.0050000e+03   3.9960000e+03   3.9930000e+03   3.9610000e+03   3.9930000e+03   3.9790000e+03   3.8480000e+03   3.8000000e+03   3.7960000e+03   3.6140000e+03   3.6750000e+03   3.9190000e+03   3.9520000e+03   4.1700000e+03   4.1270000e+03   4.1060000e+03   3.9810000e+03   3.0820000e+03   3.9940000e+03   4.0080000e+03   4.0110000e+03   4.1340000e+03   4.0940000e+03   3.4730000e+03   2.9780000e+03   2.2910000e+03   1.7420000e+03   1.1240000e+03   1.1700000e+03   5.9400000e+02             NaN   7.0000000e+00   7.0000000e+00   5.3000000e+01   4.2000000e+01   4.9000000e+01   7.0000000e+00             NaN             NaN             NaN             NaN             NaN             NaN             NaN             NaN             NaN             NaN             NaN             NaN             NaN             NaN
NaN             NaN             NaN             NaN             NaN             NaN             NaN             NaN             NaN             NaN             NaN             NaN             NaN             NaN             NaN             NaN             NaN             NaN             NaN             NaN   1.0000000e+00   1.0000000e+00   1.2000000e+01   1.6000000e+01   2.6000000e+01   4.0000000e+01   5.2000000e+01   6.6000000e+01   7.8000000e+01   9.1000000e+01   9.8000000e+01   1.0100000e+02   9.9000000e+01   9.6000000e+01   9.6000000e+01   9.9000000e+01   1.1000000e+02   1.2600000e+02   1.4500000e+02   1.6200000e+02   1.9800000e+02   2.1700000e+02   4.8300000e+02   7.8200000e+02   9.6900000e+02   1.0620000e+03   1.1890000e+03   1.2120000e+03   1.2520000e+03   1.2800000e+03   1.3070000e+03   1.3270000e+03   1.3430000e+03   1.3790000e+03   1.3970000e+03   1.4380000e+03   1.4250000e+03   1.3900000e+03   1.3840000e+03   1.1980000e+03   1.1920000e+03   1.1030000e+03   9.9700000e+02   9.2200000e+02   4.2500000e+02   5.0100000e+02   2.2400000e+02   1.0400000e+02   2.5500000e+02   3.2900000e+02   4.9000000e+02   6.0700000e+02   7.8800000e+02   9.6600000e+02   7.8100000e+02   6.8400000e+02   3.7100000e+02   3.2900000e+02   3.8000000e+02   4.9500000e+02   6.3200000e+02   1.1940000e+03   1.3700000e+03   1.4860000e+03   1.6090000e+03   1.7420000e+03   1.9930000e+03   2.0060000e+03   2.0180000e+03   2.2110000e+03   2.4040000e+03   2.4330000e+03   2.6400000e+03   2.7900000e+03   2.4440000e+03   2.8460000e+03   2.5980000e+03   2.5050000e+03   2.3960000e+03   2.3850000e+03   2.3770000e+03   2.1910000e+03   2.1890000e+03   2.1300000e+03   2.1940000e+03   2.2610000e+03   2.5140000e+03   2.8650000e+03   3.1700000e+03   3.7390000e+03   3.9510000e+03   4.0160000e+03   4.0470000e+03   4.0460000e+03   4.0900000e+03   4.1320000e+03   4.1400000e+03   4.1190000e+03   4.0670000e+03   3.7370000e+03   3.9070000e+03   3.4510000e+03   3.0810000e+03   3.0660000e+03   3.8590000e+03   3.7070000e+03   3.4800000e+03   3.4780000e+03   3.5810000e+03   3.6310000e+03   3.5850000e+03   3.6880000e+03   3.8220000e+03   3.9260000e+03   3.9830000e+03   4.0010000e+03   4.0100000e+03   3.9980000e+03   3.9970000e+03   3.9980000e+03   3.9920000e+03   3.8970000e+03   3.5010000e+03   3.6150000e+03   3.6100000e+03   3.6070000e+03   3.6070000e+03   3.8270000e+03   3.9770000e+03   4.1610000e+03   4.1760000e+03   4.1010000e+03   3.3870000e+03   3.0330000e+03   3.8900000e+03   4.0770000e+03   4.4180000e+03   4.5030000e+03   3.4690000e+03   2.9310000e+03   2.3050000e+03   1.9900000e+03   1.0470000e+03   1.0080000e+03   2.5500000e+02   2.3200000e+02   3.8000000e+01   2.6000000e+01   5.8000000e+01   2.7000000e+01   2.8000000e+01             NaN             NaN             NaN             NaN             NaN             NaN             NaN             NaN             NaN             NaN             NaN             NaN             NaN             NaN             NaN
NaN             NaN             NaN             NaN             NaN             NaN             NaN             NaN             NaN             NaN             NaN             NaN             NaN             NaN             NaN             NaN             NaN             NaN  -0.0000000e+00   1.0000000e+00   1.0000000e+00   1.3000000e+01   2.3000000e+01   3.7000000e+01   4.0000000e+01   5.1000000e+01   6.2000000e+01   7.5000000e+01   8.7000000e+01   9.6000000e+01   9.9000000e+01   1.0000000e+02   9.8000000e+01   9.6000000e+01   9.5000000e+01   1.0100000e+02   1.1500000e+02   1.3500000e+02   1.5100000e+02   1.6900000e+02   1.5500000e+02   2.2000000e+02   4.7800000e+02   9.3200000e+02   9.8500000e+02   1.1020000e+03   1.1830000e+03   1.2580000e+03   1.2700000e+03   1.3150000e+03   1.3440000e+03   1.3610000e+03   1.3730000e+03   1.3940000e+03   1.3980000e+03   1.4160000e+03   1.3940000e+03   1.3880000e+03   1.2520000e+03   1.1920000e+03   1.0770000e+03   1.0020000e+03   9.8900000e+02   8.3400000e+02   7.8900000e+02   2.6800000e+02   1.1400000e+02   2.1100000e+02   1.4900000e+02   4.6000000e+02   7.4500000e+02   7.5700000e+02   7.8700000e+02   8.2900000e+02   8.1400000e+02   7.7400000e+02   5.8900000e+02   3.2100000e+02   2.4000000e+02   3.0800000e+02   6.3600000e+02   1.1970000e+03   1.3720000e+03   1.5440000e+03   1.6090000e+03   1.7520000e+03   1.8090000e+03   1.9330000e+03   2.0110000e+03   2.1630000e+03   2.2220000e+03   2.4710000e+03   2.4310000e+03   2.8590000e+03   2.9830000e+03   2.9810000e+03   2.7970000e+03   2.6100000e+03   2.6040000e+03   2.5980000e+03   2.6540000e+03   2.7120000e+03   2.6260000e+03   2.6490000e+03   2.7050000e+03   2.6690000e+03   2.8760000e+03   2.6860000e+03   2.9630000e+03   2.9920000e+03   3.3830000e+03   3.8600000e+03   3.9710000e+03   4.0290000e+03   4.0130000e+03   4.0620000e+03   4.0980000e+03   4.1000000e+03   4.0810000e+03   4.0320000e+03   4.0050000e+03   3.9370000e+03   3.8670000e+03   3.7910000e+03   3.7720000e+03   3.8430000e+03   3.4700000e+03   3.4650000e+03   3.8580000e+03   3.8720000e+03   3.6110000e+03   3.7210000e+03   3.8130000e+03   3.8980000e+03   3.9570000e+03   3.9900000e+03   4.0010000e+03   4.0080000e+03   4.0000000e+03   3.9980000e+03   3.9950000e+03   3.9900000e+03   3.8030000e+03   3.7360000e+03   3.6070000e+03   3.6010000e+03   3.4190000e+03   3.3140000e+03   3.6080000e+03   3.9130000e+03   3.9760000e+03   4.1590000e+03   3.9880000e+03   3.5540000e+03   3.8740000e+03   4.0160000e+03   4.2910000e+03   4.3970000e+03   3.6620000e+03   2.6000000e+03   2.0180000e+03   1.9780000e+03   1.3970000e+03   9.9900000e+02   9.6700000e+02   2.2300000e+02   2.0700000e+02   1.1000000e+02   9.1000000e+01   5.0000000e+01   3.7000000e+01             NaN             NaN             NaN             NaN             NaN             NaN             NaN             NaN             NaN             NaN             NaN             NaN             NaN             NaN             NaN
NaN             NaN             NaN             NaN             NaN             NaN             NaN             NaN             NaN             NaN             NaN             NaN             NaN             NaN             NaN             NaN             NaN  -0.0000000e+00   1.0000000e+00   7.0000000e+00   1.6000000e+01   2.4000000e+01   3.5000000e+01   4.0000000e+01   5.2000000e+01   6.0000000e+01   7.0000000e+01   8.3000000e+01   9.7000000e+01   9.9000000e+01   9.9000000e+01   1.0000000e+02   9.9000000e+01   9.8000000e+01   9.6000000e+01   1.0200000e+02   1.1700000e+02   1.3800000e+02   1.5100000e+02   1.6000000e+02   1.4900000e+02   2.1600000e+02   4.2400000e+02   7.2600000e+02   9.8200000e+02   9.9900000e+02   1.1910000e+03   1.2680000e+03   1.2890000e+03   1.3360000e+03   1.3630000e+03   1.3770000e+03   1.3880000e+03   1.3960000e+03   1.3970000e+03   1.4120000e+03   1.3930000e+03   1.3020000e+03   1.1970000e+03   1.0090000e+03   1.0040000e+03   9.9500000e+02   9.4800000e+02   8.9300000e+02   7.4100000e+02   7.9000000e+02   5.1800000e+02   2.4900000e+02   2.5100000e+02   9.1100000e+02   7.8900000e+02   7.8500000e+02   7.5800000e+02   7.7500000e+02   7.2100000e+02   7.6900000e+02   9.5300000e+02   7.8000000e+02   4.3300000e+02   2.7100000e+02   2.9000000e+02   1.1200000e+03   1.5890000e+03   1.6040000e+03   1.7950000e+03   1.8030000e+03   1.8110000e+03   1.9980000e+03   2.0090000e+03   2.2020000e+03   2.3550000e+03   2.4180000e+03   2.8550000e+03   2.9860000e+03   3.0660000e+03   3.0670000e+03   2.9910000e+03   2.8070000e+03   2.8020000e+03   2.7980000e+03   2.8840000e+03   2.9700000e+03   2.9640000e+03   2.9570000e+03   2.9480000e+03   2.9370000e+03   2.9300000e+03   2.7880000e+03   1.8690000e+03   1.9390000e+03   2.2240000e+03   3.0310000e+03   3.7750000e+03   3.9740000e+03   4.0290000e+03   4.0460000e+03   4.0590000e+03   4.0750000e+03   4.0740000e+03   4.0590000e+03   4.0310000e+03   4.0050000e+03   3.9920000e+03   3.9770000e+03   3.9590000e+03   3.5210000e+03   3.0280000e+03   2.1210000e+03   1.7410000e+03   2.9780000e+03   3.8970000e+03   3.8610000e+03   3.8670000e+03   3.9190000e+03   3.9580000e+03   3.9860000e+03   3.9980000e+03   4.0020000e+03   4.0100000e+03   4.0000000e+03   3.9970000e+03   3.9640000e+03   3.9860000e+03   3.7930000e+03   3.7890000e+03   3.7810000e+03   3.5080000e+03   3.1810000e+03   3.3670000e+03   3.4760000e+03   3.7030000e+03   3.9750000e+03   3.9830000e+03   4.0000000e+03   4.0140000e+03   4.2040000e+03   4.0780000e+03   4.0370000e+03   3.0010000e+03   2.0610000e+03   2.0240000e+03   1.8530000e+03   1.5360000e+03   1.0380000e+03   8.3600000e+02   6.4300000e+02   4.2500000e+02   2.9400000e+02   2.5700000e+02   2.0700000e+02   1.2000000e+01             NaN             NaN             NaN             NaN             NaN             NaN             NaN             NaN             NaN             NaN             NaN             NaN             NaN             NaN             NaN
NaN             NaN             NaN             NaN             NaN             NaN             NaN             NaN             NaN             NaN             NaN             NaN             NaN             NaN             NaN             NaN  -0.0000000e+00   1.0000000e+01   1.0000000e+01   1.7000000e+01   2.5000000e+01   3.7000000e+01   4.0000000e+01   4.9000000e+01   5.9000000e+01   6.8000000e+01   7.6000000e+01   8.8000000e+01   9.9000000e+01   9.9000000e+01   1.0200000e+02   1.0100000e+02   1.0000000e+02   9.9000000e+01   9.6000000e+01   1.0300000e+02   1.1600000e+02   1.4000000e+02   1.4700000e+02   1.4400000e+02   1.3800000e+02   2.0300000e+02   2.1800000e+02   5.4600000e+02   8.3800000e+02   9.9500000e+02   1.1900000e+03   1.2760000e+03   1.2970000e+03   1.3470000e+03   1.3730000e+03   1.3840000e+03   1.3920000e+03   1.3970000e+03   1.3950000e+03   1.4120000e+03   1.3930000e+03   1.2050000e+03   1.1170000e+03   1.0080000e+03   9.6200000e+02   9.8200000e+02   9.4800000e+02   8.9900000e+02   8.6100000e+02   8.2100000e+02   8.0100000e+02   8.6200000e+02   9.8100000e+02   9.7700000e+02   9.7000000e+02   7.4400000e+02   7.7200000e+02   4.9400000e+02   6.2700000e+02   7.6700000e+02   8.9800000e+02   8.8400000e+02   1.0810000e+03   7.6900000e+02   8.4900000e+02   1.4970000e+03   1.7830000e+03   1.7960000e+03   1.8750000e+03   1.8980000e+03   1.9340000e+03   2.0020000e+03   2.0710000e+03   2.2020000e+03   2.3990000e+03   2.7790000e+03   2.9770000e+03   3.0420000e+03   3.1790000e+03   3.1830000e+03   3.0790000e+03   2.9980000e+03   2.9930000e+03   2.9870000e+03   2.9800000e+03   2.9900000e+03   3.0230000e+03   2.9460000e+03   2.9340000e+03   2.9230000e+03   2.4830000e+03   2.0820000e+03   1.1370000e+03   1.4420000e+03   2.2680000e+03   2.7940000e+03   3.0420000e+03   3.7840000e+03   3.9810000e+03   3.9710000e+03   4.0270000e+03   4.0530000e+03   4.0570000e+03   4.0550000e+03   4.0420000e+03   4.0170000e+03   4.0030000e+03   4.0350000e+03   3.9690000e+03   3.7750000e+03   3.0420000e+03   2.1350000e+03   1.7510000e+03   3.0500000e+03   3.7880000e+03   3.9150000e+03   3.9320000e+03   3.9670000e+03   3.9820000e+03   3.9930000e+03   3.9990000e+03   4.0100000e+03   4.0010000e+03   4.0010000e+03   3.9980000e+03   3.9940000e+03   3.8980000e+03   3.8010000e+03   3.7560000e+03   3.7320000e+03   3.7820000e+03   3.6640000e+03   3.0690000e+03   2.5910000e+03   3.4890000e+03   3.6680000e+03   3.8840000e+03   3.9480000e+03   4.0060000e+03   4.1480000e+03   4.0480000e+03   4.0710000e+03   3.0090000e+03   2.0730000e+03   1.9030000e+03   1.8690000e+03   1.6580000e+03   1.2750000e+03   1.0370000e+03   8.1000000e+02   7.4200000e+02   6.4100000e+02   5.1800000e+02   3.8500000e+02   1.3600000e+02             NaN             NaN             NaN             NaN             NaN             NaN             NaN             NaN             NaN             NaN             NaN             NaN             NaN             NaN             NaN
NaN             NaN             NaN             NaN             NaN             NaN             NaN             NaN             NaN             NaN             NaN             NaN             NaN             NaN             NaN   1.0000000e+00   1.0000000e+00   1.0000000e+01   1.8000000e+01   2.5000000e+01   3.4000000e+01   4.0000000e+01   4.9000000e+01   5.7000000e+01   6.5000000e+01   7.4000000e+01   8.1000000e+01   8.9000000e+01   9.7000000e+01   1.0200000e+02   1.0200000e+02   1.0000000e+02   1.0000000e+02   9.9000000e+01   9.8000000e+01   1.0200000e+02   1.1400000e+02   1.3200000e+02   1.4100000e+02   1.3200000e+02   1.3100000e+02   1.9800000e+02   2.1200000e+02   3.9700000e+02   7.1600000e+02   9.9000000e+02   1.1870000e+03   1.2630000e+03   1.3010000e+03   1.3540000e+03   1.3810000e+03   1.3900000e+03   1.3940000e+03   1.3990000e+03   1.4050000e+03   1.4150000e+03   1.3950000e+03   1.2080000e+03   1.1980000e+03   1.0100000e+03   9.8400000e+02   9.7900000e+02   9.4600000e+02   9.0600000e+02   8.9500000e+02   9.5400000e+02   9.8800000e+02   9.9000000e+02   9.8900000e+02   9.9600000e+02   9.7400000e+02   7.8100000e+02   2.2800000e+02   2.1900000e+02   2.1700000e+02   2.2600000e+02   5.1400000e+02   1.1050000e+03   1.3650000e+03   1.3250000e+03   1.4390000e+03   1.8990000e+03   1.9740000e+03   1.9860000e+03   1.9950000e+03   2.0020000e+03   2.0140000e+03   2.0920000e+03   2.1430000e+03   2.2060000e+03   2.4020000e+03   2.6140000e+03   2.8890000e+03   2.9930000e+03   3.1820000e+03   3.2410000e+03   3.1880000e+03   3.1150000e+03   3.0570000e+03   3.0310000e+03   2.9890000e+03   2.9240000e+03   2.9480000e+03   2.9300000e+03   2.1950000e+03   2.0960000e+03   2.1830000e+03   2.0990000e+03   2.0230000e+03   2.0430000e+03   2.2490000e+03   2.6130000e+03   3.0280000e+03   3.7730000e+03   3.8230000e+03   3.9460000e+03   3.9900000e+03   4.0010000e+03   4.0280000e+03   4.0360000e+03   4.0270000e+03   4.0040000e+03   3.9580000e+03   3.9180000e+03   3.9690000e+03   3.9690000e+03   3.7790000e+03   3.0520000e+03   3.0530000e+03   3.0640000e+03   3.6690000e+03   3.8800000e+03   3.9830000e+03   4.0060000e+03   3.9940000e+03   3.9970000e+03   3.9980000e+03   3.9990000e+03   4.0090000e+03   4.0010000e+03   3.9990000e+03   3.9810000e+03   3.9020000e+03   3.7310000e+03   3.7470000e+03   3.7190000e+03   3.7240000e+03   3.7850000e+03   3.7870000e+03   2.4660000e+03   2.3720000e+03   3.0570000e+03   3.6910000e+03   3.9180000e+03   3.9400000e+03   4.0060000e+03   4.0820000e+03   4.0520000e+03   3.5220000e+03   2.0960000e+03   2.0700000e+03   2.0440000e+03   2.0180000e+03   1.6110000e+03   1.1160000e+03   1.0830000e+03   9.9300000e+02   8.7100000e+02   9.2100000e+02   6.3700000e+02   4.2900000e+02             NaN             NaN             NaN             NaN             NaN             NaN             NaN             NaN             NaN             NaN             NaN             NaN             NaN             NaN             NaN
NaN             NaN             NaN             NaN             NaN             NaN             NaN             NaN             NaN             NaN             NaN             NaN  -0.0000000e+00  -0.0000000e+00   1.0000000e+00   1.0000000e+00   1.9000000e+01   2.3000000e+01   2.5000000e+01   3.0000000e+01   4.0000000e+01   4.8000000e+01   5.6000000e+01   6.4000000e+01   7.2000000e+01   7.9000000e+01   8.6000000e+01   9.2000000e+01   9.7000000e+01   1.0000000e+02   1.0000000e+02   1.0000000e+02   1.0000000e+02   9.9000000e+01   1.0000000e+02   1.0600000e+02   1.1200000e+02   1.2300000e+02   1.3900000e+02   1.3000000e+02   1.3300000e+02   1.3100000e+02   1.7000000e+02   2.5200000e+02   6.1100000e+02   9.8700000e+02   1.0950000e+03   1.2010000e+03   1.3070000e+03   1.3630000e+03   1.3890000e+03   1.3990000e+03   1.4080000e+03   1.4280000e+03   1.4420000e+03   1.4430000e+03   1.4100000e+03   1.3930000e+03   1.2040000e+03   1.1150000e+03   1.0140000e+03   9.5900000e+02   9.3000000e+02   8.6200000e+02   9.1000000e+02   9.6100000e+02   9.8500000e+02   1.0060000e+03   9.9400000e+02   9.9000000e+02   9.3400000e+02   7.8800000e+02   7.7400000e+02   2.2400000e+02   9.8000000e+01   5.3000000e+01   2.5100000e+02   9.5700000e+02   1.1930000e+03   1.5110000e+03   1.8280000e+03   1.9630000e+03   1.9770000e+03   2.0310000e+03   2.1820000e+03   2.1920000e+03   2.1550000e+03   2.1400000e+03   2.1300000e+03   2.2100000e+03   2.2890000e+03   2.4250000e+03   2.8010000e+03   2.9930000e+03   3.1820000e+03   3.3100000e+03   3.2290000e+03   3.1770000e+03   3.1100000e+03   3.0070000e+03   2.9540000e+03   2.9590000e+03   2.5060000e+03   2.1100000e+03   1.5540000e+03   1.0890000e+03   1.9880000e+03   2.1710000e+03   2.1200000e+03   2.1980000e+03   2.5110000e+03   2.8750000e+03   3.1240000e+03   3.2820000e+03   3.6750000e+03   3.8790000e+03   3.9360000e+03   3.9790000e+03   3.9960000e+03   4.0030000e+03   4.0110000e+03   4.0050000e+03   3.9840000e+03   3.9560000e+03   3.9800000e+03   3.9800000e+03   3.9730000e+03   3.7870000e+03   3.7880000e+03   3.7960000e+03   3.7640000e+03   3.9380000e+03   3.9880000e+03   4.0110000e+03   3.9960000e+03   3.9300000e+03   3.8160000e+03   3.9970000e+03   3.9980000e+03   4.0100000e+03   4.0060000e+03   3.9990000e+03   3.9960000e+03   3.8930000e+03   3.8050000e+03   3.7280000e+03   3.6620000e+03   3.7000000e+03   3.7760000e+03   3.4120000e+03   2.6590000e+03   3.0410000e+03   3.3170000e+03   3.3190000e+03   3.9890000e+03   3.9970000e+03   4.1630000e+03   4.0010000e+03   3.7380000e+03   2.4460000e+03   2.2380000e+03   2.2110000e+03   2.1850000e+03   1.9790000e+03   1.6540000e+03   1.3920000e+03   1.0470000e+03   1.0330000e+03   1.0170000e+03   9.9600000e+02   6.1200000e+02             NaN             NaN             NaN             NaN             NaN             NaN             NaN             NaN             NaN             NaN             NaN             NaN             NaN             NaN             NaN
NaN             NaN             NaN             NaN             NaN             NaN             NaN             NaN             NaN             NaN             NaN             NaN  -0.0000000e+00   2.0000000e+01   1.9000000e+01   3.8000000e+01   3.6000000e+01   3.3000000e+01   3.1000000e+01   3.1000000e+01   4.9000000e+01   5.6000000e+01   6.3000000e+01   7.0000000e+01   7.7000000e+01   8.5000000e+01   9.2000000e+01   9.7000000e+01   9.9000000e+01   1.0000000e+02   1.0000000e+02   1.0000000e+02   1.0000000e+02   9.9000000e+01   9.9000000e+01   1.0000000e+02   1.1900000e+02   1.0900000e+02   1.3600000e+02   1.3800000e+02   1.4800000e+02   1.5500000e+02   2.1300000e+02   2.4400000e+02   5.6200000e+02   9.1900000e+02   1.0920000e+03   1.2290000e+03   1.3100000e+03   1.3620000e+03   1.3890000e+03   1.4050000e+03   1.4350000e+03   1.4710000e+03   1.4930000e+03   1.4970000e+03   1.4840000e+03   1.4280000e+03   1.3920000e+03   1.2020000e+03   1.0120000e+03   9.9900000e+02   9.2900000e+02   7.2100000e+02   6.8300000e+02   9.7000000e+02   8.6400000e+02   9.5400000e+02   1.0200000e+03   9.9600000e+02   9.4800000e+02   8.9900000e+02   7.8600000e+02   2.3700000e+02   5.5000000e+01   1.0000000e+02   5.2900000e+02   9.3700000e+02   1.1940000e+03   1.3900000e+03   1.4950000e+03   1.7190000e+03   1.7580000e+03   1.9900000e+03   2.1850000e+03   2.2230000e+03   2.3000000e+03   2.2170000e+03   2.2210000e+03   2.2280000e+03   2.2950000e+03   2.4320000e+03   2.8050000e+03   2.8140000e+03   3.0000000e+03   3.1850000e+03   3.1490000e+03   3.1900000e+03   3.1850000e+03   2.9930000e+03   2.7580000e+03   2.2360000e+03   2.2170000e+03   2.0910000e+03   1.7630000e+03   1.4480000e+03   2.0680000e+03   2.1530000e+03   1.7990000e+03   2.3190000e+03   2.9150000e+03   2.9510000e+03   2.9920000e+03   3.0290000e+03   3.7760000e+03   3.8080000e+03   3.8700000e+03   3.9270000e+03   3.9570000e+03   3.9770000e+03   3.9970000e+03   4.0000000e+03   3.9970000e+03   3.9880000e+03   3.9740000e+03   3.9770000e+03   3.9790000e+03   3.9800000e+03   3.9800000e+03   3.8060000e+03   3.8130000e+03   4.0000000e+03   4.0020000e+03   4.0030000e+03   3.9830000e+03   3.9360000e+03   3.7800000e+03   3.8890000e+03   3.9960000e+03   4.0020000e+03   4.0160000e+03   4.0260000e+03   4.0000000e+03   3.9910000e+03   3.8730000e+03   3.7360000e+03   3.6130000e+03   3.5330000e+03   3.5360000e+03   3.7530000e+03   3.6860000e+03   3.2480000e+03   3.3020000e+03   3.1460000e+03   2.7840000e+03   3.7650000e+03   4.1850000e+03   4.1690000e+03   4.0570000e+03   2.9590000e+03   2.6750000e+03   2.6630000e+03   2.4710000e+03   2.1900000e+03   2.2070000e+03   2.0710000e+03   1.6960000e+03   1.3630000e+03   1.3570000e+03   1.3470000e+03   8.8400000e+02   8.8000000e+01             NaN             NaN             NaN             NaN             NaN             NaN             NaN             NaN             NaN             NaN             NaN             NaN             NaN             NaN
NaN             NaN             NaN             NaN             NaN             NaN             NaN             NaN             NaN             NaN             NaN             NaN   2.0000000e+01   1.9000000e+01   3.8000000e+01   3.9000000e+01   4.1000000e+01   4.2000000e+01   4.4000000e+01   5.8000000e+01   5.9000000e+01   6.3000000e+01   6.8000000e+01   7.4000000e+01   8.1000000e+01   8.8000000e+01   9.6000000e+01   9.9000000e+01   1.0000000e+02   1.0000000e+02   1.0000000e+02   1.0000000e+02   1.0000000e+02   9.9000000e+01   9.9000000e+01   9.9000000e+01   9.9000000e+01   9.9000000e+01   1.1900000e+02   1.3800000e+02   1.4500000e+02   1.6000000e+02   1.5100000e+02   2.3300000e+02   4.6400000e+02   9.7400000e+02   9.9500000e+02   1.1930000e+03   1.3050000e+03   1.3360000e+03   1.3970000e+03   1.4050000e+03   1.4550000e+03   1.5030000e+03   1.5330000e+03   1.5490000e+03   1.5510000e+03   1.5150000e+03   1.4450000e+03   1.3900000e+03   1.1990000e+03   1.0670000e+03   9.8800000e+02   7.3200000e+02   2.4900000e+02   4.8600000e+02   5.7500000e+02   8.4500000e+02   1.0700000e+03   1.0040000e+03   9.9700000e+02   9.8100000e+02   9.2100000e+02   7.0300000e+02   2.8700000e+02   6.1600000e+02   8.0600000e+02   9.9900000e+02   1.1320000e+03   1.3320000e+03   1.4500000e+03   1.4110000e+03   1.5870000e+03   1.6250000e+03   1.9150000e+03   2.2040000e+03   2.4000000e+03   2.4100000e+03   2.4160000e+03   2.3620000e+03   2.2410000e+03   2.4410000e+03   2.7670000e+03   2.8170000e+03   2.8960000e+03   2.8360000e+03   3.1010000e+03   3.1930000e+03   3.1900000e+03   3.0880000e+03   2.7400000e+03   2.2410000e+03   2.1720000e+03   2.0270000e+03   2.0700000e+03   2.0820000e+03   1.9760000e+03   9.8200000e+02   1.6320000e+03   1.9680000e+03   2.8910000e+03   2.9290000e+03   3.5150000e+03   3.7360000e+03   3.7430000e+03   3.7940000e+03   3.7830000e+03   3.8740000e+03   3.8970000e+03   3.9390000e+03   3.9700000e+03   3.9910000e+03   4.0020000e+03   4.0070000e+03   4.0080000e+03   4.0000000e+03   3.9920000e+03   3.9990000e+03   3.9850000e+03   3.9940000e+03   3.9980000e+03   4.0020000e+03   4.0030000e+03   4.0020000e+03   3.9860000e+03   3.9290000e+03   3.9040000e+03   3.8120000e+03   3.9290000e+03   3.9880000e+03   4.0010000e+03   4.0240000e+03   4.0380000e+03   3.9970000e+03   3.9230000e+03   3.7450000e+03   3.5800000e+03   3.4400000e+03   3.3580000e+03   3.5490000e+03   3.7290000e+03   3.6070000e+03   3.4680000e+03   3.4050000e+03   3.3750000e+03   3.5430000e+03   4.1670000e+03   4.1450000e+03   3.9360000e+03   3.0130000e+03   2.8130000e+03   2.7020000e+03   2.5990000e+03   2.5830000e+03   2.5600000e+03   2.1720000e+03   1.9610000e+03   1.5390000e+03   1.5120000e+03   1.4560000e+03   1.1340000e+03   6.1300000e+02   1.1800000e+02             NaN             NaN             NaN             NaN             NaN             NaN             NaN             NaN             NaN             NaN             NaN             NaN             NaN
NaN             NaN             NaN             NaN             NaN             NaN             NaN             NaN             NaN             NaN             NaN             NaN   3.9000000e+01   3.8000000e+01   3.7000000e+01   3.9000000e+01   3.8000000e+01   4.4000000e+01   5.7000000e+01   5.9000000e+01   6.5000000e+01   6.8000000e+01   7.3000000e+01   7.8000000e+01   8.1000000e+01   8.9000000e+01   9.5000000e+01   9.9000000e+01   1.0000000e+02   1.0100000e+02   1.0000000e+02   1.0000000e+02   1.0000000e+02   1.0000000e+02   1.0000000e+02   9.9000000e+01   9.8000000e+01   9.8000000e+01   1.0500000e+02   1.1800000e+02   1.4500000e+02   1.4700000e+02   1.7300000e+02   1.8900000e+02   2.2300000e+02   6.0000000e+02   9.8300000e+02   1.1830000e+03   1.2720000e+03   1.3060000e+03   1.3500000e+03   1.4000000e+03   1.4560000e+03   1.5050000e+03   1.5480000e+03   1.5820000e+03   1.5930000e+03   1.5860000e+03   1.5170000e+03   1.4430000e+03   1.3870000e+03   1.2030000e+03   1.1220000e+03   9.8800000e+02   6.1800000e+02   1.6400000e+02   5.4900000e+02   9.0200000e+02   1.0460000e+03   1.0920000e+03   1.0720000e+03   1.0530000e+03   9.7800000e+02   8.4200000e+02   9.8500000e+02   8.0300000e+02   8.9600000e+02   9.9900000e+02   1.1880000e+03   1.3770000e+03   1.3880000e+03   1.4580000e+03   1.4170000e+03   1.4440000e+03   1.9280000e+03   2.3850000e+03   2.5810000e+03   2.9590000e+03   2.9680000e+03   2.9740000e+03   2.9820000e+03   2.9010000e+03   2.9080000e+03   3.0030000e+03   2.7960000e+03   2.8390000e+03   3.0770000e+03   3.1970000e+03   3.2310000e+03   3.1590000e+03   3.1720000e+03   2.8400000e+03   2.1140000e+03   2.1330000e+03   2.0190000e+03   2.0680000e+03   1.9870000e+03   1.3610000e+03   1.9220000e+03   1.9620000e+03   7.5200000e+02   9.2300000e+02   3.1410000e+03   3.5440000e+03   3.7550000e+03   3.6830000e+03   3.6960000e+03   3.8490000e+03   3.8880000e+03   3.8990000e+03   3.9360000e+03   3.9620000e+03   3.9770000e+03   3.9810000e+03   3.9780000e+03   3.9960000e+03   3.9940000e+03   3.9970000e+03   4.0000000e+03   4.0200000e+03   4.0430000e+03   4.0490000e+03   4.0040000e+03   4.0090000e+03   4.0020000e+03   3.9880000e+03   3.9940000e+03   3.9120000e+03   3.9110000e+03   3.9580000e+03   3.9850000e+03   4.0000000e+03   3.9990000e+03   3.9950000e+03   3.9700000e+03   3.7320000e+03   3.5700000e+03   3.4750000e+03   3.3410000e+03   3.4280000e+03   3.1370000e+03   2.7070000e+03   2.8250000e+03   3.0340000e+03   4.0590000e+03   4.1620000e+03   4.1470000e+03   3.9350000e+03   3.8970000e+03   2.9660000e+03   2.9410000e+03   2.7420000e+03   2.6480000e+03   2.6850000e+03   2.4770000e+03   1.9300000e+03   1.6690000e+03   1.6300000e+03   1.5970000e+03   1.5690000e+03   1.3120000e+03   1.0490000e+03   1.9800000e+02             NaN             NaN             NaN             NaN             NaN             NaN             NaN             NaN             NaN             NaN             NaN             NaN             NaN
NaN             NaN             NaN             NaN             NaN             NaN             NaN             NaN  -0.0000000e+00  -0.0000000e+00   1.1000000e+01   1.0000000e+01   2.0000000e+01   3.9000000e+01   3.9000000e+01   4.0000000e+01   4.0000000e+01   5.3000000e+01   5.8000000e+01   6.0000000e+01   6.6000000e+01   7.2000000e+01   7.8000000e+01   8.0000000e+01   8.2000000e+01   8.7000000e+01   9.2000000e+01   9.6000000e+01   9.9000000e+01   1.0100000e+02   1.0100000e+02   1.0000000e+02   1.0000000e+02   1.0100000e+02   1.0100000e+02   1.0100000e+02   9.9000000e+01   9.8000000e+01   9.2000000e+01   9.0000000e+01   1.2500000e+02   1.4600000e+02   1.7800000e+02   1.4800000e+02   2.2300000e+02   2.2800000e+02   6.8300000e+02   9.8800000e+02   1.1850000e+03   1.2570000e+03   1.3130000e+03   1.3910000e+03   1.4050000e+03   1.4870000e+03   1.5390000e+03   1.5850000e+03   1.5970000e+03   1.6040000e+03   1.5850000e+03   1.5160000e+03   1.3910000e+03   1.3140000e+03   1.2240000e+03   1.1820000e+03   9.9400000e+02   6.3100000e+02   9.9400000e+02   9.8400000e+02   1.0760000e+03   1.1100000e+03   1.1170000e+03   1.1060000e+03   1.0800000e+03   1.0750000e+03   9.9800000e+02   9.8500000e+02   9.9700000e+02   1.0000000e+03   1.1850000e+03   1.3720000e+03   1.4010000e+03   1.5710000e+03   1.5860000e+03   1.7870000e+03   2.1730000e+03   2.3820000e+03   2.6700000e+03   2.9630000e+03   3.0630000e+03   3.0430000e+03   3.1720000e+03   3.1800000e+03   3.1860000e+03   3.1920000e+03   3.1360000e+03   3.1110000e+03   3.2100000e+03   3.2490000e+03   3.2670000e+03   3.2250000e+03   3.2090000e+03   3.1740000e+03   3.0400000e+03   2.0640000e+03   2.0470000e+03   2.1660000e+03   2.0310000e+03   1.9280000e+03   1.8360000e+03   1.3780000e+03   1.9830000e+03   8.2700000e+02   2.7700000e+02   3.1770000e+03   3.5670000e+03   3.2240000e+03   3.7820000e+03   3.8260000e+03   3.8450000e+03   3.8740000e+03   3.9000000e+03   3.9240000e+03   3.9430000e+03   3.9590000e+03   3.9710000e+03   3.9840000e+03   4.0020000e+03   4.0000000e+03   4.0020000e+03   4.0360000e+03   4.0460000e+03   4.0340000e+03   4.0280000e+03   4.0030000e+03   4.0100000e+03   3.9980000e+03   3.9810000e+03   3.9520000e+03   3.9250000e+03   3.9320000e+03   3.9440000e+03   3.9650000e+03   3.9940000e+03   3.9900000e+03   3.8780000e+03   3.7210000e+03   3.5870000e+03   3.5240000e+03   3.6230000e+03   3.3540000e+03   3.1110000e+03   9.6700000e+02   1.4230000e+03   3.0280000e+03   3.7260000e+03   4.1790000e+03   4.1230000e+03   3.8590000e+03   3.0670000e+03   2.9360000e+03   2.8260000e+03   2.8740000e+03   2.8140000e+03   2.8500000e+03   2.6720000e+03   2.1050000e+03   1.7920000e+03   1.3340000e+03   9.2500000e+02   6.7600000e+02   1.3510000e+03   8.8000000e+02             NaN             NaN             NaN             NaN             NaN             NaN             NaN             NaN             NaN             NaN             NaN             NaN             NaN             NaN
NaN             NaN             NaN             NaN             NaN             NaN             NaN             NaN  -0.0000000e+00   8.0000000e+00   7.0000000e+00   2.0000000e+01   3.2000000e+01   4.0000000e+01   4.8000000e+01   5.2000000e+01   5.9000000e+01   5.9000000e+01   6.0000000e+01   6.4000000e+01   6.8000000e+01   7.5000000e+01   7.9000000e+01   7.9000000e+01   8.1000000e+01   8.5000000e+01   8.9000000e+01   9.3000000e+01   9.7000000e+01   1.0000000e+02   1.0100000e+02   1.0100000e+02   1.0100000e+02   1.0100000e+02   1.0100000e+02   1.0200000e+02   9.9000000e+01   9.8000000e+01   9.4000000e+01   8.4000000e+01   1.0500000e+02   1.3800000e+02   1.4500000e+02   1.5000000e+02   1.1400000e+02   2.1500000e+02   2.3300000e+02   9.7200000e+02   9.8900000e+02   1.1840000e+03   1.2660000e+03   1.3210000e+03   1.3930000e+03   1.4480000e+03   1.5140000e+03   1.5690000e+03   1.5980000e+03   1.6210000e+03   1.5940000e+03   1.5910000e+03   1.4750000e+03   1.3890000e+03   1.2930000e+03   1.2410000e+03   1.1920000e+03   1.1900000e+03   1.1900000e+03   1.1390000e+03   1.1260000e+03   1.1420000e+03   1.1630000e+03   1.1890000e+03   1.1850000e+03   1.1890000e+03   1.1920000e+03   1.1890000e+03   1.1090000e+03   1.1850000e+03   1.1860000e+03   1.1760000e+03   1.3750000e+03   1.3840000e+03   1.5170000e+03   1.7770000e+03   1.8940000e+03   2.2540000e+03   2.4010000e+03   2.9610000e+03   3.0690000e+03   2.9880000e+03   3.1190000e+03   3.1850000e+03   3.2600000e+03   3.2360000e+03   3.2430000e+03   3.2640000e+03   3.3100000e+03   3.3670000e+03   3.3670000e+03   3.3250000e+03   3.2700000e+03   3.2470000e+03   3.0200000e+03   2.9870000e+03   2.5220000e+03   2.4430000e+03   2.3290000e+03   2.0770000e+03   2.0460000e+03   1.6160000e+03   2.2500000e+02   2.5100000e+02   2.8700000e+02   2.4010000e+03   3.0280000e+03   3.5870000e+03   3.5620000e+03   3.7910000e+03   3.8300000e+03   3.8490000e+03   3.8820000e+03   3.9000000e+03   3.9080000e+03   3.9310000e+03   3.9500000e+03   3.9630000e+03   3.9750000e+03   3.9820000e+03   3.9980000e+03   3.9970000e+03   4.1000000e+03   4.0920000e+03   4.0650000e+03   3.9980000e+03   4.0000000e+03   4.0000000e+03   3.9730000e+03   3.9360000e+03   3.9110000e+03   3.9000000e+03   3.8970000e+03   3.9040000e+03   3.9210000e+03   3.8890000e+03   3.8030000e+03   3.7080000e+03   3.6240000e+03   3.6430000e+03   3.2860000e+03   3.1770000e+03   3.7330000e+03   2.6990000e+03   1.4560000e+03   1.6820000e+03   3.0690000e+03   4.0790000e+03   4.2790000e+03   4.0920000e+03   2.9240000e+03   2.2720000e+03   2.5310000e+03   2.7930000e+03   2.7840000e+03   2.7460000e+03   2.5630000e+03   2.0750000e+03   1.7630000e+03   1.0810000e+03   7.7200000e+02   3.1800000e+02   1.2360000e+03   1.2030000e+03             NaN             NaN             NaN             NaN             NaN             NaN             NaN             NaN             NaN             NaN             NaN             NaN             NaN             NaN
NaN             NaN             NaN             NaN             NaN             NaN             NaN             NaN   7.0000000e+00   7.0000000e+00   2.0000000e+01   3.9000000e+01   3.9000000e+01   4.7000000e+01   5.8000000e+01   5.9000000e+01   5.9000000e+01   6.2000000e+01   6.4000000e+01   6.8000000e+01   7.1000000e+01   7.6000000e+01   7.9000000e+01   8.0000000e+01   8.0000000e+01   8.0000000e+01   8.2000000e+01   8.7000000e+01   9.4000000e+01   9.9000000e+01   1.0100000e+02   1.0100000e+02   1.0100000e+02   1.0100000e+02   1.0000000e+02   9.9000000e+01   9.9000000e+01   9.9000000e+01   9.8000000e+01   8.9000000e+01   9.2000000e+01   1.0900000e+02   1.4200000e+02   1.4300000e+02   1.5000000e+02   1.1900000e+02   2.1900000e+02   2.3500000e+02   9.7300000e+02   9.8900000e+02   1.1840000e+03   1.2520000e+03   1.3350000e+03   1.3960000e+03   1.4950000e+03   1.5450000e+03   1.5980000e+03   1.6200000e+03   1.6310000e+03   1.5970000e+03   1.5910000e+03   1.4030000e+03   1.3560000e+03   1.3130000e+03   1.3110000e+03   1.3060000e+03   1.2720000e+03   1.2130000e+03   1.2130000e+03   1.2140000e+03   1.2160000e+03   1.2580000e+03   1.2940000e+03   1.3050000e+03   1.3040000e+03   1.2640000e+03   1.2010000e+03   1.1990000e+03   1.0430000e+03   1.0130000e+03   1.0150000e+03   1.0200000e+03   1.0310000e+03   1.3010000e+03   1.5240000e+03   1.8590000e+03   2.3890000e+03   2.9510000e+03   2.9670000e+03   3.0660000e+03   3.1120000e+03   3.1720000e+03   3.2600000e+03   3.2500000e+03   3.3190000e+03   3.3790000e+03   3.4300000e+03   3.4670000e+03   3.4880000e+03   3.4410000e+03   3.3970000e+03   3.3520000e+03   3.2810000e+03   3.1190000e+03   2.9980000e+03   2.9840000e+03   2.4740000e+03   2.2350000e+03   2.2230000e+03   2.5090000e+03   2.0520000e+03   2.9640000e+03   2.9910000e+03   3.0180000e+03   3.0390000e+03   3.0540000e+03   3.6040000e+03   3.7520000e+03   3.7980000e+03   3.8480000e+03   3.8730000e+03   3.8840000e+03   3.9000000e+03   3.9090000e+03   3.9190000e+03   3.9210000e+03   3.9210000e+03   3.9090000e+03   3.9190000e+03   3.9610000e+03   3.9750000e+03   3.9480000e+03   3.9790000e+03   3.9770000e+03   3.9880000e+03   3.9830000e+03   3.9590000e+03   3.9190000e+03   3.8830000e+03   3.8570000e+03   3.8450000e+03   3.8450000e+03   3.8460000e+03   3.8300000e+03   3.7870000e+03   3.7290000e+03   3.6770000e+03   3.6410000e+03   3.7570000e+03   3.7680000e+03   3.5050000e+03   3.3780000e+03   2.8050000e+03   2.4470000e+03   2.6290000e+03   3.6930000e+03   4.2450000e+03   4.3150000e+03   3.9270000e+03   2.5280000e+03   2.1490000e+03   2.7800000e+03   2.7730000e+03   2.7620000e+03   2.5590000e+03   2.1620000e+03   1.8500000e+03   1.0940000e+03   3.4900000e+02   3.2200000e+02   1.0130000e+03   1.2060000e+03   3.6200000e+02             NaN             NaN             NaN             NaN             NaN             NaN             NaN             NaN             NaN             NaN             NaN             NaN             NaN
NaN             NaN             NaN             NaN             NaN             NaN             NaN   1.3000000e+01   1.3000000e+01   2.0000000e+01   2.8000000e+01   3.9000000e+01   4.5000000e+01   5.0000000e+01   5.6000000e+01   5.9000000e+01   6.0000000e+01   6.0000000e+01   6.7000000e+01   7.1000000e+01   7.4000000e+01   7.7000000e+01   7.9000000e+01   7.9000000e+01   7.8000000e+01   7.9000000e+01   7.6000000e+01   8.1000000e+01   9.0000000e+01   9.8000000e+01   1.0000000e+02   1.0000000e+02   9.9000000e+01   9.9000000e+01   9.9000000e+01   9.9000000e+01   1.0000000e+02   1.0200000e+02   9.9000000e+01   9.7000000e+01   8.4000000e+01   8.1000000e+01   9.8000000e+01   1.3100000e+02   1.3700000e+02   1.3800000e+02   1.3500000e+02   2.2000000e+02   2.3600000e+02   9.7200000e+02   9.8900000e+02   1.1230000e+03   1.2550000e+03   1.3890000e+03   1.4000000e+03   1.5230000e+03   1.5720000e+03   1.6050000e+03   1.6410000e+03   1.6520000e+03   1.5980000e+03   1.5230000e+03   1.4140000e+03   1.3620000e+03   1.3270000e+03   1.3200000e+03   1.3090000e+03   1.3050000e+03   1.3010000e+03   1.2960000e+03   1.2950000e+03   1.2990000e+03   1.3140000e+03   1.3480000e+03   1.4050000e+03   1.4040000e+03   1.3990000e+03   1.3930000e+03   1.1470000e+03   5.7900000e+02   9.7100000e+02   9.9200000e+02   1.0300000e+03   9.4000000e+02   1.4670000e+03   1.6900000e+03   1.9540000e+03   2.5750000e+03   2.9530000e+03   2.9690000e+03   2.9850000e+03   3.1800000e+03   3.2630000e+03   3.2570000e+03   3.3230000e+03   3.4210000e+03   3.4770000e+03   3.4980000e+03   3.4990000e+03   3.4970000e+03   3.4850000e+03   3.4700000e+03   3.4270000e+03   3.3770000e+03   3.2760000e+03   3.0120000e+03   3.0010000e+03   2.1330000e+03   2.9250000e+03   3.2550000e+03   3.5320000e+03   3.5470000e+03   3.5650000e+03   3.5830000e+03   3.6560000e+03   3.6950000e+03   3.7910000e+03   3.7960000e+03   3.8000000e+03   3.8480000e+03   3.8710000e+03   3.8860000e+03   3.8990000e+03   3.8990000e+03   3.8910000e+03   3.8720000e+03   3.8500000e+03   3.8090000e+03   3.8550000e+03   3.8990000e+03   3.7400000e+03   3.8590000e+03   3.7120000e+03   3.8750000e+03   3.9820000e+03   3.9690000e+03   3.9500000e+03   3.8990000e+03   3.8520000e+03   3.8070000e+03   3.8010000e+03   3.7970000e+03   3.8180000e+03   3.8180000e+03   3.7960000e+03   3.7630000e+03   3.7360000e+03   3.7450000e+03   3.8080000e+03   3.8020000e+03   3.8020000e+03   3.9440000e+03   3.9480000e+03   3.9690000e+03   3.6930000e+03   3.9320000e+03   4.1670000e+03   4.1330000e+03   3.7400000e+03   2.8810000e+03   2.2750000e+03   2.2770000e+03   2.8200000e+03   2.8190000e+03   2.7170000e+03   2.2420000e+03   1.9390000e+03   1.2780000e+03   9.8900000e+02   2.4600000e+02   9.4200000e+02   9.1700000e+02   1.1100000e+02             NaN             NaN             NaN             NaN             NaN             NaN             NaN             NaN             NaN             NaN             NaN             NaN             NaN
NaN             NaN             NaN             NaN             NaN             NaN   9.0000000e+00   8.0000000e+00   1.9000000e+01   2.0000000e+01   3.9000000e+01   4.0000000e+01   4.6000000e+01   5.0000000e+01   5.5000000e+01   5.8000000e+01   6.0000000e+01   6.4000000e+01   6.9000000e+01   7.3000000e+01   7.6000000e+01   7.8000000e+01   7.9000000e+01   7.9000000e+01   7.9000000e+01   7.9000000e+01   8.0000000e+01   8.1000000e+01   9.0000000e+01   9.9000000e+01   1.0000000e+02   9.8000000e+01   9.6000000e+01   9.6000000e+01   9.7000000e+01   9.7000000e+01   9.8000000e+01   9.8000000e+01   1.0200000e+02   9.5000000e+01   9.3000000e+01   7.8000000e+01   8.2000000e+01   8.8000000e+01   1.1800000e+02   1.4600000e+02   1.5200000e+02   1.6800000e+02   2.8500000e+02   2.3600000e+02   9.7200000e+02   9.8700000e+02   1.1820000e+03   1.1960000e+03   1.3900000e+03   1.4670000e+03   1.5520000e+03   1.6030000e+03   1.6520000e+03   1.6710000e+03   1.6500000e+03   1.6030000e+03   1.5060000e+03   1.4140000e+03   1.4120000e+03   1.4090000e+03   1.4060000e+03   1.4040000e+03   1.4020000e+03   1.4000000e+03   1.4020000e+03   1.4180000e+03   1.4230000e+03   1.4190000e+03   1.6040000e+03   1.6650000e+03   1.6910000e+03   1.5940000e+03   1.5850000e+03   1.2770000e+03   1.1510000e+03   1.0300000e+03   1.0340000e+03   1.4040000e+03   1.6000000e+03   1.6190000e+03   1.9390000e+03   2.5570000e+03   2.5740000e+03   2.7000000e+03   2.9690000e+03   2.9860000e+03   3.1820000e+03   3.2280000e+03   3.2650000e+03   3.3980000e+03   3.4800000e+03   3.5390000e+03   3.5180000e+03   3.5340000e+03   3.5410000e+03   3.5490000e+03   3.5370000e+03   3.5380000e+03   3.5670000e+03   3.4030000e+03   3.3890000e+03   3.2210000e+03   3.2920000e+03   3.5090000e+03   3.6630000e+03   3.6740000e+03   3.7750000e+03   3.7850000e+03   3.7920000e+03   3.8190000e+03   3.7980000e+03   3.8000000e+03   3.8300000e+03   3.8490000e+03   3.8710000e+03   3.8880000e+03   3.9020000e+03   3.8970000e+03   3.8710000e+03   3.8340000e+03   3.7940000e+03   3.7300000e+03   3.8000000e+03   3.8140000e+03   3.8440000e+03   3.0320000e+03   3.4500000e+03   3.8770000e+03   3.7890000e+03   3.9530000e+03   3.9350000e+03   3.8840000e+03   3.8360000e+03   3.7910000e+03   3.7570000e+03   3.7980000e+03   3.8130000e+03   3.8230000e+03   3.8160000e+03   3.8010000e+03   3.7930000e+03   3.7970000e+03   3.7990000e+03   3.8610000e+03   3.8890000e+03   3.9880000e+03   4.0170000e+03   4.0190000e+03   4.0940000e+03   4.2030000e+03   4.1830000e+03   4.0930000e+03   2.9250000e+03   2.8530000e+03   2.3140000e+03   2.3240000e+03   2.8770000e+03   2.9360000e+03   2.8880000e+03   2.6050000e+03   2.0980000e+03   1.3900000e+03   9.4000000e+02   8.8100000e+02   8.6200000e+02   1.2400000e+02             NaN             NaN             NaN             NaN             NaN             NaN             NaN             NaN             NaN             NaN             NaN             NaN             NaN             NaN
NaN             NaN             NaN             NaN             NaN   1.0000000e+00   1.0000000e+00   1.9000000e+01   2.5000000e+01   3.9000000e+01   4.0000000e+01   4.5000000e+01   4.9000000e+01   5.3000000e+01   5.7000000e+01   5.9000000e+01   6.3000000e+01   6.7000000e+01   7.1000000e+01   7.4000000e+01   7.8000000e+01   7.9000000e+01   7.9000000e+01   7.9000000e+01   7.9000000e+01   8.0000000e+01   8.2000000e+01   8.7000000e+01   9.5000000e+01   9.8000000e+01   9.7000000e+01   9.3000000e+01   9.2000000e+01   9.1000000e+01   8.9000000e+01   8.8000000e+01   9.1000000e+01   9.4000000e+01   9.4000000e+01   9.1000000e+01   9.4000000e+01   9.5000000e+01   9.5000000e+01   7.7000000e+01   9.1000000e+01   1.3700000e+02   1.4700000e+02   1.5400000e+02   2.0200000e+02   2.9200000e+02   2.3500000e+02   9.6800000e+02   9.8300000e+02   1.1780000e+03   1.2850000e+03   1.3840000e+03   1.5420000e+03   1.5930000e+03   1.6720000e+03   1.7000000e+03   1.7210000e+03   1.7010000e+03   1.6090000e+03   1.6070000e+03   1.6050000e+03   1.6020000e+03   1.5980000e+03   1.5940000e+03   1.5900000e+03   1.5890000e+03   1.4990000e+03   1.4860000e+03   1.5340000e+03   1.6160000e+03   1.8040000e+03   1.9860000e+03   1.8930000e+03   1.8560000e+03   1.6070000e+03   1.5970000e+03   1.4990000e+03   1.4040000e+03   1.4040000e+03   1.3570000e+03   1.4190000e+03   1.6120000e+03   1.8070000e+03   2.0000000e+03   2.2840000e+03   2.2100000e+03   2.5870000e+03   2.9660000e+03   2.9880000e+03   3.1750000e+03   3.2750000e+03   3.3420000e+03   3.4560000e+03   3.4990000e+03   3.5020000e+03   3.5240000e+03   3.5370000e+03   3.5440000e+03   3.5660000e+03   3.5890000e+03   3.6190000e+03   3.5870000e+03   3.5290000e+03   3.4060000e+03   3.5160000e+03   3.6820000e+03   3.6880000e+03   3.8060000e+03   3.8000000e+03   3.7970000e+03   3.8540000e+03   3.8410000e+03   3.8320000e+03   3.8370000e+03   3.8490000e+03   3.8510000e+03   3.8730000e+03   3.8890000e+03   3.9030000e+03   3.8930000e+03   3.8670000e+03   3.8220000e+03   3.7740000e+03   3.7030000e+03   3.7690000e+03   3.8540000e+03   3.0320000e+03   3.0150000e+03   2.5930000e+03   3.0340000e+03   3.8930000e+03   3.9480000e+03   3.9200000e+03   3.8810000e+03   3.8450000e+03   3.8160000e+03   3.8020000e+03   3.8080000e+03   3.8310000e+03   3.8400000e+03   3.8400000e+03   3.8360000e+03   3.8380000e+03   3.8520000e+03   3.8740000e+03   3.9820000e+03   3.9710000e+03   3.9560000e+03   3.9210000e+03   4.0570000e+03   4.1930000e+03   4.1590000e+03   4.2040000e+03   4.0100000e+03   2.8550000e+03   2.5000000e+03   2.2090000e+03   2.2010000e+03   2.7360000e+03   2.7100000e+03   2.8960000e+03   2.6910000e+03   2.0270000e+03   1.8070000e+03   1.4570000e+03   1.2190000e+03   1.0390000e+03   1.6300000e+02             NaN             NaN             NaN             NaN             NaN             NaN             NaN             NaN             NaN             NaN             NaN             NaN             NaN             NaN
NaN             NaN             NaN             NaN             NaN   1.0000000e+01   1.0000000e+01   2.0000000e+01   3.3000000e+01   3.9000000e+01   4.6000000e+01   4.9000000e+01   5.4000000e+01   5.9000000e+01   5.9000000e+01   6.0000000e+01   6.4000000e+01   6.9000000e+01   7.3000000e+01   7.6000000e+01   7.8000000e+01   7.9000000e+01   7.9000000e+01   7.9000000e+01   8.0000000e+01   8.4000000e+01   8.8000000e+01   9.5000000e+01   9.8000000e+01   9.9000000e+01   9.0000000e+01   8.7000000e+01   8.6000000e+01   8.4000000e+01   8.0000000e+01   7.9000000e+01   8.1000000e+01   8.7000000e+01   8.8000000e+01   8.0000000e+01   8.7000000e+01   9.4000000e+01   9.7000000e+01   9.6000000e+01   9.9000000e+01   1.0200000e+02   1.1200000e+02   1.4900000e+02   1.5500000e+02   1.7500000e+02   2.1900000e+02   2.3000000e+02   6.1000000e+02   9.7800000e+02   1.1170000e+03   1.3770000e+03   1.4840000e+03   1.5820000e+03   1.6520000e+03   1.7280000e+03   1.7780000e+03   1.7970000e+03   1.7990000e+03   1.7990000e+03   1.7980000e+03   1.7950000e+03   1.7900000e+03   1.6700000e+03   1.6080000e+03   1.5990000e+03   1.6030000e+03   1.6110000e+03   1.6220000e+03   1.8140000e+03   2.0030000e+03   2.1870000e+03   2.1850000e+03   1.9990000e+03   1.9000000e+03   1.8000000e+03   1.7010000e+03   1.6040000e+03   1.5340000e+03   1.4190000e+03   1.4230000e+03   1.6100000e+03   1.6180000e+03   1.8070000e+03   1.8170000e+03   2.0370000e+03   2.0260000e+03   2.3140000e+03   2.8400000e+03   2.9730000e+03   3.1650000e+03   3.1780000e+03   3.1730000e+03   3.4600000e+03   3.4930000e+03   3.5150000e+03   3.5370000e+03   3.5590000e+03   3.5960000e+03   3.6300000e+03   3.6610000e+03   3.6590000e+03   3.6290000e+03   3.6070000e+03   3.6460000e+03   3.6950000e+03   3.7620000e+03   3.7720000e+03   3.7960000e+03   3.8020000e+03   3.8330000e+03   3.8400000e+03   3.8460000e+03   3.8490000e+03   3.8500000e+03   3.8620000e+03   3.8760000e+03   3.8890000e+03   3.9020000e+03   3.8940000e+03   3.8720000e+03   3.8310000e+03   3.7850000e+03   3.7190000e+03   3.6710000e+03   3.6310000e+03   3.8510000e+03   2.8140000e+03   2.2890000e+03   2.7670000e+03   3.8920000e+03   3.9380000e+03   3.9070000e+03   3.8890000e+03   3.8720000e+03   3.8610000e+03   3.8580000e+03   3.8610000e+03   3.8640000e+03   3.8640000e+03   3.8630000e+03   3.8630000e+03   3.8710000e+03   3.8880000e+03   3.9320000e+03   3.9850000e+03   3.9860000e+03   4.0000000e+03   4.0260000e+03   4.1430000e+03   4.2550000e+03   4.1910000e+03   4.1550000e+03   4.0410000e+03   2.9260000e+03   2.5600000e+03   2.2690000e+03   2.3380000e+03   2.2740000e+03   2.9360000e+03   2.9800000e+03   2.9810000e+03   2.3310000e+03   1.9720000e+03   1.5850000e+03   1.3310000e+03   9.5200000e+02   1.4200000e+02             NaN             NaN             NaN             NaN             NaN             NaN             NaN             NaN             NaN             NaN             NaN             NaN             NaN             NaN
NaN             NaN             NaN             NaN   1.0000000e+00   1.0000000e+00   1.9000000e+01   2.7000000e+01   3.9000000e+01   4.4000000e+01   4.8000000e+01   5.3000000e+01   5.8000000e+01   5.9000000e+01   5.9000000e+01   6.0000000e+01   6.6000000e+01   7.1000000e+01   7.4000000e+01   7.7000000e+01   7.9000000e+01   7.9000000e+01   7.9000000e+01   7.8000000e+01   8.2000000e+01   8.6000000e+01   9.4000000e+01   9.9000000e+01   9.8000000e+01   8.0000000e+01   8.0000000e+01   8.0000000e+01   7.9000000e+01   7.9000000e+01   8.0000000e+01   8.0000000e+01   8.0000000e+01   8.0000000e+01   8.5000000e+01   8.2000000e+01   8.5000000e+01   8.9000000e+01   9.2000000e+01   9.7000000e+01   9.8000000e+01   9.4000000e+01   9.6000000e+01   1.0100000e+02   1.4900000e+02   1.5400000e+02   1.5800000e+02   2.1400000e+02   2.2500000e+02   2.3900000e+02   9.7800000e+02   1.1800000e+03   1.3810000e+03   1.5000000e+03   1.5890000e+03   1.6970000e+03   1.7940000e+03   1.8350000e+03   1.8910000e+03   1.9870000e+03   1.9460000e+03   1.9280000e+03   1.8600000e+03   1.7950000e+03   1.6120000e+03   1.6130000e+03   1.6180000e+03   1.8070000e+03   1.8190000e+03   1.9510000e+03   2.2000000e+03   2.3840000e+03   2.3830000e+03   2.1990000e+03   2.1020000e+03   2.0040000e+03   1.9050000e+03   1.8070000e+03   1.7390000e+03   1.7050000e+03   1.7030000e+03   1.7940000e+03   1.6760000e+03   1.6710000e+03   1.7720000e+03   1.8170000e+03   1.9190000e+03   2.0280000e+03   2.5840000e+03   2.6220000e+03   2.5200000e+03   2.3110000e+03   3.1830000e+03   3.3550000e+03   3.4780000e+03   3.5340000e+03   3.5340000e+03   3.5610000e+03   3.6020000e+03   3.6460000e+03   3.6820000e+03   3.6920000e+03   3.6900000e+03   3.6980000e+03   3.7010000e+03   3.7090000e+03   3.7490000e+03   3.7750000e+03   3.7980000e+03   3.8120000e+03   3.8180000e+03   3.8270000e+03   3.8420000e+03   3.8480000e+03   3.8590000e+03   3.8640000e+03   3.8770000e+03   3.8880000e+03   3.8980000e+03   3.8960000e+03   3.8830000e+03   3.8520000e+03   3.8150000e+03   3.7630000e+03   3.6950000e+03   3.6640000e+03   3.6340000e+03   3.8640000e+03   3.0610000e+03   3.0720000e+03   3.8920000e+03   3.9140000e+03   3.8990000e+03   3.9000000e+03   3.8990000e+03   3.8990000e+03   3.8990000e+03   3.8970000e+03   3.8950000e+03   3.8890000e+03   3.8850000e+03   3.8860000e+03   3.8920000e+03   3.9100000e+03   3.9570000e+03   3.9910000e+03   4.0140000e+03   4.0260000e+03   4.0830000e+03   4.1860000e+03   4.2680000e+03   4.1900000e+03   4.1550000e+03   3.9310000e+03   2.8990000e+03   2.8710000e+03   2.2240000e+03   2.2140000e+03   2.6340000e+03   2.8010000e+03   2.8920000e+03   2.8910000e+03   2.7450000e+03   2.1090000e+03   2.0360000e+03   1.5070000e+03   1.0470000e+03   2.8500000e+02             NaN             NaN             NaN             NaN             NaN             NaN             NaN             NaN             NaN             NaN             NaN             NaN             NaN             NaN
NaN             NaN             NaN             NaN   7.0000000e+00   7.0000000e+00   1.9000000e+01   2.9000000e+01   3.9000000e+01   4.6000000e+01   5.1000000e+01   5.7000000e+01   5.9000000e+01   6.1000000e+01   6.2000000e+01   6.5000000e+01   6.9000000e+01   7.4000000e+01   7.6000000e+01   7.9000000e+01   7.9000000e+01   7.9000000e+01   7.9000000e+01   8.0000000e+01   8.3000000e+01   8.7000000e+01   9.6000000e+01   9.8000000e+01   9.8000000e+01   8.0000000e+01   7.6000000e+01   7.3000000e+01   7.1000000e+01   7.0000000e+01   7.1000000e+01   7.9000000e+01   7.9000000e+01   7.9000000e+01   7.9000000e+01   7.8000000e+01   7.7000000e+01   7.7000000e+01   7.9000000e+01   8.0000000e+01   9.8000000e+01   9.8000000e+01   9.5000000e+01   1.0000000e+02   1.0600000e+02   1.4800000e+02   1.5300000e+02   1.6100000e+02   1.4900000e+02   2.2300000e+02   2.4000000e+02   9.8000000e+02   1.0920000e+03   1.3830000e+03   1.5140000e+03   1.5970000e+03   1.7460000e+03   1.7920000e+03   1.8970000e+03   1.9890000e+03   1.9930000e+03   2.0530000e+03   1.9910000e+03   1.8080000e+03   1.8070000e+03   1.6300000e+03   1.8160000e+03   1.8250000e+03   2.0150000e+03   2.2050000e+03   2.3330000e+03   2.4490000e+03   2.5170000e+03   2.4850000e+03   2.3910000e+03   2.2060000e+03   2.1390000e+03   2.0700000e+03   2.0920000e+03   1.9940000e+03   1.9270000e+03   1.8030000e+03   1.8010000e+03   1.8020000e+03   1.8060000e+03   1.8050000e+03   1.8890000e+03   2.0250000e+03   2.5810000e+03   2.4760000e+03   2.0690000e+03   2.0840000e+03   3.1230000e+03   3.3180000e+03   3.4760000e+03   3.4950000e+03   3.5430000e+03   3.5640000e+03   3.6040000e+03   3.6560000e+03   3.7060000e+03   3.7090000e+03   3.7120000e+03   3.7190000e+03   3.7380000e+03   3.7510000e+03   3.7690000e+03   3.7870000e+03   3.7980000e+03   3.8030000e+03   3.8000000e+03   3.7980000e+03   3.8110000e+03   3.8360000e+03   3.8510000e+03   3.8590000e+03   3.8730000e+03   3.8860000e+03   3.8940000e+03   3.8990000e+03   3.8970000e+03   3.8790000e+03   3.8530000e+03   3.8200000e+03   3.7770000e+03   3.7290000e+03   3.8050000e+03   3.8570000e+03   3.8820000e+03   3.8890000e+03   3.7820000e+03   3.8980000e+03   3.9010000e+03   3.9020000e+03   3.9140000e+03   3.9190000e+03   3.9190000e+03   3.9160000e+03   3.9080000e+03   3.8980000e+03   3.8980000e+03   3.8970000e+03   3.9040000e+03   3.9210000e+03   3.9520000e+03   3.9800000e+03   4.0020000e+03   4.0420000e+03   4.1130000e+03   4.2020000e+03   4.2620000e+03   4.1890000e+03   4.1570000e+03   3.9950000e+03   2.9950000e+03   2.9650000e+03   2.8540000e+03   2.8110000e+03   2.7420000e+03   2.8540000e+03   2.8540000e+03   2.8940000e+03   2.8560000e+03   2.6390000e+03   2.0860000e+03   1.4800000e+03   1.0680000e+03   3.0200000e+02   8.4000000e+01             NaN             NaN             NaN             NaN             NaN             NaN             NaN             NaN             NaN             NaN             NaN             NaN             NaN
NaN             NaN             NaN             NaN   1.0000000e+00   1.0000000e+00   2.0000000e+01   2.1000000e+01   4.0000000e+01   4.6000000e+01   5.3000000e+01   5.9000000e+01   5.9000000e+01   6.2000000e+01   6.4000000e+01   6.8000000e+01   7.2000000e+01   7.7000000e+01   8.0000000e+01   8.0000000e+01   7.9000000e+01   7.9000000e+01   7.9000000e+01   8.0000000e+01   8.3000000e+01   8.6000000e+01   9.2000000e+01   9.7000000e+01   8.8000000e+01   7.9000000e+01   7.4000000e+01   6.7000000e+01   6.1000000e+01   6.0000000e+01   6.0000000e+01   6.0000000e+01   6.7000000e+01   7.0000000e+01   7.2000000e+01   7.1000000e+01   7.1000000e+01   7.2000000e+01   7.3000000e+01   8.1000000e+01   7.9000000e+01   8.8000000e+01   9.7000000e+01   9.5000000e+01   1.0500000e+02   1.1000000e+02   1.4800000e+02   1.5200000e+02   1.5700000e+02   1.5700000e+02   2.2400000e+02   2.4100000e+02   7.9500000e+02   1.0920000e+03   1.3840000e+03   1.5830000e+03   1.6720000e+03   1.7620000e+03   1.7980000e+03   1.9020000e+03   1.9930000e+03   2.0870000e+03   2.1190000e+03   2.0000000e+03   1.9420000e+03   1.8260000e+03   1.8320000e+03   2.0200000e+03   2.2080000e+03   2.3950000e+03   2.4020000e+03   2.5010000e+03   2.5710000e+03   2.5850000e+03   2.5840000e+03   2.4920000e+03   2.4570000e+03   2.3740000e+03   2.2020000e+03   2.1050000e+03   1.8230000e+03   1.6360000e+03   1.7510000e+03   1.8110000e+03   1.8140000e+03   1.8230000e+03   2.0150000e+03   2.2560000e+03   2.5740000e+03   2.5470000e+03   2.4710000e+03   2.9920000e+03   3.1290000e+03   3.3160000e+03   3.4260000e+03   3.4970000e+03   3.5510000e+03   3.5970000e+03   3.6070000e+03   3.6730000e+03   3.7160000e+03   3.7050000e+03   3.7080000e+03   3.7220000e+03   3.7580000e+03   3.7750000e+03   3.7910000e+03   3.8000000e+03   3.8000000e+03   3.7980000e+03   3.7830000e+03   3.7690000e+03   3.7720000e+03   3.8000000e+03   3.8350000e+03   3.8530000e+03   3.8670000e+03   3.8820000e+03   3.8920000e+03   3.8990000e+03   3.8990000e+03   3.8990000e+03   3.8850000e+03   3.8700000e+03   3.8530000e+03   3.8330000e+03   3.8600000e+03   3.8820000e+03   3.8960000e+03   3.8950000e+03   3.8980000e+03   3.9090000e+03   3.9140000e+03   3.9160000e+03   3.9220000e+03   3.9230000e+03   3.9210000e+03   3.9150000e+03   3.9070000e+03   3.9020000e+03   3.8990000e+03   3.8980000e+03   3.9060000e+03   3.9240000e+03   3.9530000e+03   3.9770000e+03   4.0070000e+03   4.0520000e+03   4.1220000e+03   4.2000000e+03   4.2450000e+03   4.2870000e+03   4.1800000e+03   4.0330000e+03   3.0440000e+03   3.0970000e+03   3.0070000e+03   2.9990000e+03   2.9080000e+03   2.9400000e+03   2.9790000e+03   3.0010000e+03   3.1010000e+03   2.9400000e+03   1.9910000e+03   1.0380000e+03   6.6000000e+02   2.2700000e+02   1.0500000e+02             NaN             NaN             NaN             NaN             NaN             NaN             NaN             NaN             NaN             NaN             NaN             NaN             NaN
NaN             NaN             NaN             NaN   2.0000000e+00   1.0000000e+00   2.0000000e+01   3.9000000e+01   4.0000000e+01   4.9000000e+01   5.5000000e+01   5.7000000e+01   6.1000000e+01   6.4000000e+01   6.7000000e+01   7.1000000e+01   7.5000000e+01   7.8000000e+01   7.9000000e+01   8.0000000e+01   8.0000000e+01   8.0000000e+01   8.0000000e+01   8.0000000e+01   8.1000000e+01   8.3000000e+01   8.7000000e+01   8.6000000e+01   7.9000000e+01   7.8000000e+01   7.0000000e+01   6.0000000e+01   5.9000000e+01   5.2000000e+01   5.0000000e+01   5.1000000e+01   5.3000000e+01   5.9000000e+01   5.9000000e+01   5.9000000e+01   5.9000000e+01   6.8000000e+01   6.9000000e+01   7.2000000e+01   7.7000000e+01   7.0000000e+01   8.6000000e+01   9.7000000e+01   9.7000000e+01   9.6000000e+01   1.0000000e+02   1.1500000e+02   1.5100000e+02   1.5700000e+02   1.6700000e+02   1.9300000e+02   2.4000000e+02   9.8000000e+02   1.1830000e+03   1.3840000e+03   1.5820000e+03   1.5960000e+03   1.7880000e+03   1.7990000e+03   1.8090000e+03   2.0860000e+03   2.0910000e+03   2.1860000e+03   2.1900000e+03   2.1360000e+03   2.0820000e+03   2.2680000e+03   2.3940000e+03   2.3900000e+03   2.4320000e+03   2.4790000e+03   2.5210000e+03   2.5680000e+03   2.5790000e+03   2.5900000e+03   2.6780000e+03   2.5820000e+03   2.4850000e+03   2.2660000e+03   1.9270000e+03   1.6490000e+03   1.6450000e+03   1.7800000e+03   1.8410000e+03   2.0170000e+03   2.0290000e+03   2.5830000e+03   2.4750000e+03   2.7380000e+03   2.8690000e+03   3.0020000e+03   3.1970000e+03   3.3160000e+03   3.4210000e+03   3.4990000e+03   3.5530000e+03   3.6000000e+03   3.6440000e+03   3.6950000e+03   3.7270000e+03   3.7080000e+03   3.7080000e+03   3.7200000e+03   3.7620000e+03   3.7850000e+03   3.8040000e+03   3.8110000e+03   3.8100000e+03   3.7980000e+03   3.7780000e+03   3.7660000e+03   3.7530000e+03   3.7840000e+03   3.8110000e+03   3.8440000e+03   3.8580000e+03   3.8710000e+03   3.8840000e+03   3.8930000e+03   3.8990000e+03   3.9000000e+03   3.9000000e+03   3.9010000e+03   3.8980000e+03   3.8950000e+03   3.8910000e+03   3.8890000e+03   3.8960000e+03   3.8990000e+03   3.9230000e+03   3.9200000e+03   3.9230000e+03   3.9240000e+03   3.9230000e+03   3.9200000e+03   3.9160000e+03   3.9100000e+03   3.9040000e+03   3.8980000e+03   3.8930000e+03   3.8930000e+03   3.9000000e+03   3.9180000e+03   3.9490000e+03   3.9750000e+03   4.0060000e+03   4.0420000e+03   4.1100000e+03   4.1860000e+03   4.2310000e+03   4.2590000e+03   4.2370000e+03   3.9630000e+03   3.9600000e+03   3.0370000e+03   3.0190000e+03   3.0080000e+03   2.9150000e+03   2.8250000e+03   3.0640000e+03   3.1440000e+03   3.1380000e+03   2.9500000e+03   2.0020000e+03   1.0480000e+03   7.9900000e+02   4.5200000e+02   1.9700000e+02             NaN             NaN             NaN             NaN             NaN             NaN             NaN             NaN             NaN             NaN             NaN             NaN             NaN
NaN             NaN             NaN             NaN   2.0000000e+01   2.0000000e+01   2.1000000e+01   3.9000000e+01   4.6000000e+01   5.2000000e+01   5.9000000e+01   5.9000000e+01   6.2000000e+01   6.6000000e+01   6.9000000e+01   7.3000000e+01   7.6000000e+01   7.9000000e+01   8.0000000e+01   8.0000000e+01   8.0000000e+01   7.9000000e+01   8.0000000e+01   8.0000000e+01   8.0000000e+01   8.0000000e+01   8.1000000e+01   8.0000000e+01   7.9000000e+01   7.4000000e+01   6.5000000e+01   5.9000000e+01   5.1000000e+01   4.6000000e+01   4.1000000e+01   4.0000000e+01   4.0000000e+01   4.0000000e+01   4.0000000e+01   4.9000000e+01   5.7000000e+01   5.7000000e+01   5.8000000e+01   5.9000000e+01   6.3000000e+01   7.8000000e+01   7.7000000e+01   8.6000000e+01   9.6000000e+01   9.7000000e+01   9.8000000e+01   1.0100000e+02   1.0900000e+02   1.5100000e+02   1.5700000e+02   1.6600000e+02   2.2300000e+02   2.3900000e+02   9.7900000e+02   1.1790000e+03   1.3790000e+03   1.5780000e+03   1.5950000e+03   1.7130000e+03   1.8010000e+03   1.8100000e+03   2.0870000e+03   2.0930000e+03   2.1880000e+03   2.3740000e+03   2.3800000e+03   2.3860000e+03   2.3990000e+03   2.4400000e+03   2.4660000e+03   2.4750000e+03   2.4590000e+03   2.4180000e+03   2.4960000e+03   2.5650000e+03   2.5860000e+03   2.7180000e+03   2.7570000e+03   2.6310000e+03   2.5050000e+03   2.0810000e+03   1.8750000e+03   1.7220000e+03   1.9360000e+03   2.0340000e+03   2.3070000e+03   1.9040000e+03   2.6090000e+03   2.7820000e+03   2.9580000e+03   3.0100000e+03   3.2030000e+03   3.3460000e+03   3.4350000e+03   3.5020000e+03   3.5610000e+03   3.6050000e+03   3.6610000e+03   3.7110000e+03   3.7380000e+03   3.7140000e+03   3.7090000e+03   3.7200000e+03   3.7650000e+03   3.7900000e+03   3.8110000e+03   3.8180000e+03   3.8140000e+03   3.8030000e+03   3.7900000e+03   3.7210000e+03   3.7820000e+03   3.7470000e+03   3.8060000e+03   3.8370000e+03   3.8510000e+03   3.8530000e+03   3.8660000e+03   3.8760000e+03   3.8830000e+03   3.8900000e+03   3.8950000e+03   3.9010000e+03   3.9060000e+03   3.9090000e+03   3.9100000e+03   3.9110000e+03   3.9110000e+03   3.9130000e+03   3.9160000e+03   3.9200000e+03   3.9210000e+03   3.9200000e+03   3.9180000e+03   3.9140000e+03   3.9100000e+03   3.9050000e+03   3.9000000e+03   3.8940000e+03   3.8890000e+03   3.8880000e+03   3.8920000e+03   3.9050000e+03   3.9320000e+03   3.9600000e+03   3.9860000e+03   4.0140000e+03   4.0830000e+03   4.1650000e+03   4.2210000e+03   4.2390000e+03   4.1840000e+03   4.1700000e+03   3.8310000e+03   3.7730000e+03   3.1520000e+03   3.0180000e+03   2.8300000e+03   2.6480000e+03   3.0060000e+03   3.1820000e+03   3.1250000e+03   2.9640000e+03   2.4670000e+03   1.9630000e+03   1.0100000e+03   5.3200000e+02   2.0200000e+02             NaN             NaN             NaN             NaN             NaN             NaN             NaN             NaN             NaN             NaN             NaN             NaN             NaN
NaN             NaN   2.0000000e+00   1.0000000e+00   2.0000000e+01   2.4000000e+01   3.9000000e+01   4.0000000e+01   5.1000000e+01   5.7000000e+01   5.9000000e+01   6.0000000e+01   6.4000000e+01   6.7000000e+01   7.0000000e+01   7.3000000e+01   7.6000000e+01   7.9000000e+01   7.9000000e+01   8.0000000e+01   8.0000000e+01   8.0000000e+01   8.0000000e+01   8.0000000e+01   8.0000000e+01   8.0000000e+01   8.0000000e+01   8.3000000e+01   7.9000000e+01   7.1000000e+01   5.9000000e+01   5.2000000e+01   4.0000000e+01   3.9000000e+01   3.1000000e+01   2.9000000e+01   2.9000000e+01   3.1000000e+01   3.8000000e+01   3.8000000e+01   3.7000000e+01   2.5000000e+01   2.0000000e+01   3.4000000e+01   4.0000000e+01   5.9000000e+01   7.7000000e+01   7.8000000e+01   7.5000000e+01   7.4000000e+01   8.4000000e+01   9.7000000e+01   9.7000000e+01   1.1200000e+02   1.5100000e+02   1.5600000e+02   1.5000000e+02   2.2000000e+02   2.3500000e+02   9.7300000e+02   9.9400000e+02   1.2560000e+03   1.4870000e+03   1.5940000e+03   1.6070000e+03   1.7980000e+03   1.8050000e+03   1.8710000e+03   2.0860000e+03   2.0920000e+03   2.2780000e+03   2.2830000e+03   2.2570000e+03   2.3810000e+03   2.3830000e+03   2.3860000e+03   2.3890000e+03   2.3740000e+03   2.3940000e+03   2.3950000e+03   2.3950000e+03   2.3930000e+03   2.4800000e+03   2.5680000e+03   2.7010000e+03   2.6560000e+03   2.9290000e+03   2.4790000e+03   2.5800000e+03   2.5870000e+03   2.5960000e+03   2.6050000e+03   2.6150000e+03   2.9780000e+03   2.9990000e+03   3.1920000e+03   3.2600000e+03   3.3520000e+03   3.4400000e+03   3.5040000e+03   3.5970000e+03   3.6190000e+03   3.6650000e+03   3.7220000e+03   3.7500000e+03   3.7280000e+03   3.7190000e+03   3.7200000e+03   3.7640000e+03   3.7900000e+03   3.8110000e+03   3.8190000e+03   3.8140000e+03   3.8040000e+03   3.7760000e+03   3.7070000e+03   3.6170000e+03   3.7660000e+03   3.8150000e+03   3.8370000e+03   3.8440000e+03   3.8500000e+03   3.8500000e+03   3.8530000e+03   3.8660000e+03   3.8750000e+03   3.8770000e+03   3.8790000e+03   3.8800000e+03   3.8790000e+03   3.8770000e+03   3.8810000e+03   3.8920000e+03   3.9010000e+03   3.9080000e+03   3.9110000e+03   3.9130000e+03   3.9120000e+03   3.9100000e+03   3.9060000e+03   3.9030000e+03   3.8980000e+03   3.8940000e+03   3.8890000e+03   3.8840000e+03   3.8830000e+03   3.8860000e+03   3.8940000e+03   3.9090000e+03   3.9410000e+03   3.9630000e+03   4.0020000e+03   4.0470000e+03   4.1380000e+03   4.2110000e+03   4.2550000e+03   4.2030000e+03   4.1330000e+03   3.6980000e+03   3.7980000e+03   3.5090000e+03   3.1780000e+03   2.9600000e+03   2.7560000e+03   2.8440000e+03   3.1260000e+03   3.2020000e+03   3.0420000e+03   2.9130000e+03   1.9620000e+03   1.0100000e+03   6.5400000e+02   1.9800000e+02   1.0000000e+01             NaN             NaN             NaN             NaN             NaN             NaN             NaN             NaN             NaN             NaN             NaN             NaN
NaN   1.0000000e+01   1.0000000e+01   2.0000000e+01   2.4000000e+01   3.4000000e+01   4.0000000e+01   4.9000000e+01   5.7000000e+01   5.9000000e+01   5.9000000e+01   6.2000000e+01   6.5000000e+01   6.8000000e+01   7.0000000e+01   7.3000000e+01   7.6000000e+01   7.8000000e+01   7.9000000e+01   8.0000000e+01   8.0000000e+01   8.0000000e+01   8.0000000e+01   8.0000000e+01   8.0000000e+01   8.1000000e+01   8.0000000e+01   7.9000000e+01   7.8000000e+01   5.9000000e+01   5.8000000e+01   3.9000000e+01   3.9000000e+01   2.0000000e+01   2.0000000e+01   1.9000000e+01   1.9000000e+01   1.9000000e+01   1.9000000e+01   1.5000000e+01   1.0000000e+00   1.0000000e+00             NaN   3.0000000e+01   2.9000000e+01   5.7000000e+01   5.8000000e+01   7.6000000e+01   5.4000000e+01   4.5000000e+01   6.2000000e+01   9.6000000e+01   9.8000000e+01   1.1200000e+02   1.1200000e+02   1.5000000e+02   1.5500000e+02   1.2700000e+02   2.1600000e+02   2.3000000e+02   6.6900000e+02   9.9100000e+02   1.1930000e+03   1.3920000e+03   1.5870000e+03   1.5980000e+03   1.7070000e+03   1.7860000e+03   1.7960000e+03   1.8010000e+03   1.9270000e+03   1.9920000e+03   1.9960000e+03   2.0890000e+03   2.0920000e+03   2.1260000e+03   2.1890000e+03   2.1920000e+03   2.1950000e+03   2.1960000e+03   2.1970000e+03   2.1970000e+03   2.1960000e+03   2.2570000e+03   2.2890000e+03   2.4190000e+03   2.7480000e+03   2.8140000e+03   2.9400000e+03   2.9470000e+03   3.0740000e+03   3.0510000e+03   3.0300000e+03   3.1010000e+03   3.1730000e+03   3.1860000e+03   3.2000000e+03   3.3300000e+03   3.4170000e+03   3.5050000e+03   3.5650000e+03   3.6080000e+03   3.6460000e+03   3.7190000e+03   3.7530000e+03   3.7290000e+03   3.7160000e+03   3.7150000e+03   3.7550000e+03   3.7810000e+03   3.8040000e+03   3.8120000e+03   3.8080000e+03   3.7990000e+03   3.7830000e+03   3.7380000e+03   3.7990000e+03   3.8000000e+03   3.8120000e+03   3.8230000e+03   3.8290000e+03   3.8300000e+03   3.8290000e+03   3.8320000e+03   3.8430000e+03   3.8450000e+03   3.8470000e+03   3.8490000e+03   3.8520000e+03   3.8530000e+03   3.8520000e+03   3.8530000e+03   3.8620000e+03   3.8710000e+03   3.8820000e+03   3.8940000e+03   3.8990000e+03   3.8990000e+03   3.8980000e+03   3.8960000e+03   3.8940000e+03   3.8900000e+03   3.8860000e+03   3.8820000e+03   3.8770000e+03   3.8750000e+03   3.8780000e+03   3.8830000e+03   3.9010000e+03   3.9160000e+03   3.9410000e+03   3.9660000e+03   4.0060000e+03   4.0900000e+03   4.1910000e+03   4.2480000e+03   4.2050000e+03   4.1480000e+03   4.1200000e+03   3.8910000e+03   3.1670000e+03   3.2180000e+03   3.1380000e+03   2.8230000e+03   2.6360000e+03   2.9520000e+03   3.1760000e+03   3.1080000e+03   2.9650000e+03   2.9160000e+03   1.5120000e+03   1.0070000e+03   2.3600000e+02   1.9200000e+02             NaN             NaN             NaN             NaN             NaN             NaN             NaN             NaN             NaN             NaN             NaN             NaN
1.0000000e+00   1.9000000e+01   1.9000000e+01   2.4000000e+01   3.1000000e+01   3.8000000e+01   4.6000000e+01   5.4000000e+01   5.8000000e+01   6.0000000e+01   6.0000000e+01   6.2000000e+01   6.5000000e+01   6.8000000e+01   7.0000000e+01   7.3000000e+01   7.6000000e+01   7.8000000e+01   8.0000000e+01   8.0000000e+01   8.1000000e+01   8.0000000e+01   8.0000000e+01   7.9000000e+01   7.7000000e+01   7.8000000e+01   7.8000000e+01   6.9000000e+01   5.9000000e+01   5.8000000e+01   3.9000000e+01   3.0000000e+01   2.0000000e+01   1.9000000e+01   9.0000000e+00   1.0000000e+00   1.0000000e+00             NaN             NaN             NaN             NaN             NaN             NaN   1.6000000e+01   1.5000000e+01   3.8000000e+01   3.8000000e+01   3.9000000e+01   4.1000000e+01   3.6000000e+01   4.4000000e+01   7.0000000e+01   9.7000000e+01   9.9000000e+01   1.1200000e+02   1.1300000e+02   1.4900000e+02   1.4400000e+02   1.2600000e+02   2.2900000e+02   2.2800000e+02   6.1700000e+02   9.8200000e+02   1.1530000e+03   1.3770000e+03   1.4800000e+03   1.5790000e+03   1.5840000e+03   1.5880000e+03   1.5930000e+03   1.6880000e+03   1.7820000e+03   1.7860000e+03   1.7890000e+03   1.7930000e+03   1.8570000e+03   1.9810000e+03   1.9860000e+03   1.9890000e+03   1.9920000e+03   1.9940000e+03   1.9950000e+03   1.9970000e+03   2.0000000e+03   2.0040000e+03   2.0990000e+03   2.1340000e+03   2.3180000e+03   2.2920000e+03   2.2070000e+03   2.9330000e+03   2.9400000e+03   2.9500000e+03   2.9610000e+03   2.9750000e+03   3.0500000e+03   3.1280000e+03   3.2060000e+03   3.3920000e+03   3.5050000e+03   3.5810000e+03   3.6120000e+03   3.6210000e+03   3.6990000e+03   3.7530000e+03   3.7300000e+03   3.7100000e+03   3.7080000e+03   3.7390000e+03   3.7680000e+03   3.7930000e+03   3.8010000e+03   3.7960000e+03   3.7870000e+03   3.7830000e+03   3.7860000e+03   3.7920000e+03   3.8010000e+03   3.8030000e+03   3.8050000e+03   3.8040000e+03   3.8300000e+03   3.8230000e+03   3.8150000e+03   3.8100000e+03   3.8150000e+03   3.8210000e+03   3.8280000e+03   3.8360000e+03   3.8410000e+03   3.8430000e+03   3.8520000e+03   3.8530000e+03   3.8590000e+03   3.8610000e+03   3.8690000e+03   3.8730000e+03   3.8770000e+03   3.8820000e+03   3.8830000e+03   3.8810000e+03   3.8790000e+03   3.8770000e+03   3.8730000e+03   3.8690000e+03   3.8660000e+03   3.8670000e+03   3.8740000e+03   3.8850000e+03   3.9000000e+03   3.9200000e+03   3.9440000e+03   4.0010000e+03   4.0190000e+03   4.1540000e+03   4.2530000e+03   4.2630000e+03   4.2120000e+03   4.2030000e+03   4.0550000e+03   3.7760000e+03   3.4310000e+03   3.1380000e+03   2.8490000e+03   2.4790000e+03   2.4210000e+03   2.9050000e+03   2.9600000e+03   3.1280000e+03   2.9170000e+03   1.9690000e+03   1.0160000e+03   6.7800000e+02   1.9400000e+02   1.0000000e+01             NaN             NaN             NaN             NaN             NaN             NaN             NaN             NaN             NaN             NaN             NaN
1.9000000e+01   1.9000000e+01   2.5000000e+01   2.8000000e+01   3.4000000e+01   3.9000000e+01   4.7000000e+01   5.5000000e+01   5.7000000e+01   5.9000000e+01   5.9000000e+01   6.2000000e+01   6.4000000e+01   6.7000000e+01   7.0000000e+01   7.2000000e+01   7.4000000e+01   7.7000000e+01   7.9000000e+01   8.1000000e+01   8.0000000e+01   8.0000000e+01   7.9000000e+01   7.5000000e+01   7.3000000e+01   7.0000000e+01   6.0000000e+01   5.9000000e+01   4.9000000e+01   3.9000000e+01   2.0000000e+01   1.9000000e+01   9.0000000e+00   1.0000000e+00             NaN             NaN             NaN             NaN             NaN             NaN             NaN             NaN             NaN             NaN             NaN   2.0000000e+00   1.0000000e+00   1.0000000e+00   3.8000000e+01   3.4000000e+01   4.0000000e+01   5.6000000e+01   8.1000000e+01   9.8000000e+01   9.9000000e+01   1.1100000e+02   1.2500000e+02   1.5200000e+02   1.5400000e+02   1.5000000e+02   1.7900000e+02   2.4000000e+02   5.1600000e+02   9.6800000e+02   9.8600000e+02   1.3000000e+03   1.3700000e+03   1.3750000e+03   1.3780000e+03   1.2920000e+03   1.3500000e+03   1.3890000e+03   1.4830000e+03   1.4860000e+03   1.4890000e+03   1.4940000e+03   1.5900000e+03   1.7150000e+03   1.6900000e+03   1.6950000e+03   1.7290000e+03   1.7920000e+03   1.7950000e+03   1.7980000e+03   1.8030000e+03   1.8070000e+03   1.8700000e+03   1.9920000e+03   1.9940000e+03   1.9970000e+03   2.0920000e+03   2.1300000e+03   2.2000000e+03   2.2130000e+03   2.2290000e+03   2.7110000e+03   2.9900000e+03   3.1930000e+03   3.2120000e+03   3.4970000e+03   3.5970000e+03   3.5890000e+03   3.6190000e+03   3.6790000e+03   3.7330000e+03   3.7160000e+03   3.6950000e+03   3.6970000e+03   3.7120000e+03   3.7360000e+03   3.7590000e+03   3.7640000e+03   3.7630000e+03   3.7550000e+03   3.7570000e+03   3.7620000e+03   3.7670000e+03   3.7710000e+03   3.7740000e+03   3.7770000e+03   3.7970000e+03   3.7940000e+03   3.7840000e+03   3.8140000e+03   3.8070000e+03   3.7780000e+03   3.7830000e+03   3.8040000e+03   3.8250000e+03   3.8400000e+03   3.8490000e+03   3.8510000e+03   3.8500000e+03   3.8490000e+03   3.8510000e+03   3.8560000e+03   3.8530000e+03   3.8530000e+03   3.8630000e+03   3.8660000e+03   3.8660000e+03   3.8650000e+03   3.8640000e+03   3.8630000e+03   3.8600000e+03   3.8590000e+03   3.8590000e+03   3.8620000e+03   3.8690000e+03   3.8810000e+03   3.8990000e+03   3.9270000e+03   3.9490000e+03   4.0130000e+03   4.1050000e+03   4.2300000e+03   4.2880000e+03   4.3040000e+03   4.2820000e+03   4.1980000e+03   4.1820000e+03   3.9190000e+03   3.2320000e+03   2.9360000e+03   2.4100000e+03   2.1920000e+03   2.5290000e+03   3.0040000e+03   3.0040000e+03   2.9900000e+03   2.9100000e+03   1.9570000e+03   1.0000000e+03   2.2700000e+02             NaN             NaN             NaN             NaN             NaN             NaN             NaN             NaN             NaN             NaN             NaN   1.0000000e+02
1.9000000e+01   2.5000000e+01   2.7000000e+01   3.1000000e+01   3.6000000e+01   3.9000000e+01   4.6000000e+01   5.2000000e+01   5.6000000e+01   5.8000000e+01   5.9000000e+01   6.1000000e+01   6.3000000e+01   6.6000000e+01   6.8000000e+01   7.0000000e+01   7.2000000e+01   7.4000000e+01   7.7000000e+01   7.9000000e+01   7.9000000e+01   7.9000000e+01   7.7000000e+01   7.1000000e+01   6.5000000e+01   6.0000000e+01   5.1000000e+01   4.2000000e+01   3.9000000e+01   1.5000000e+01   1.9000000e+01   1.0000000e+00             NaN             NaN             NaN             NaN             NaN             NaN             NaN             NaN             NaN             NaN             NaN             NaN             NaN             NaN             NaN   1.0000000e+00   1.0000000e+00   3.7000000e+01   3.7000000e+01   4.4000000e+01   7.3000000e+01   9.7000000e+01   9.8000000e+01   9.9000000e+01   1.1500000e+02   1.3500000e+02   1.5300000e+02   1.5700000e+02   1.5300000e+02   1.6800000e+02   2.2000000e+02   2.2300000e+02   6.8200000e+02   9.7300000e+02   1.0710000e+03   1.0760000e+03   1.0780000e+03   9.9100000e+02   9.9500000e+02   1.0580000e+03   1.0910000e+03   1.0930000e+03   1.0970000e+03   1.1020000e+03   1.1380000e+03   1.2950000e+03   1.3310000e+03   1.3070000e+03   1.4630000e+03   1.4970000e+03   1.5910000e+03   1.5950000e+03   1.6000000e+03   1.6030000e+03   1.6050000e+03   1.6960000e+03   1.6410000e+03   1.6070000e+03   1.6120000e+03   1.7640000e+03   1.8110000e+03   2.0040000e+03   2.1110000e+03   2.2210000e+03   2.9660000e+03   3.1120000e+03   3.1960000e+03   3.4840000e+03   3.5860000e+03   3.6090000e+03   3.6060000e+03   3.6530000e+03   3.6910000e+03   3.6830000e+03   3.6720000e+03   3.6730000e+03   3.6950000e+03   3.7030000e+03   3.7060000e+03   3.7310000e+03   3.7040000e+03   3.6970000e+03   3.6960000e+03   3.6970000e+03   3.6980000e+03   3.6970000e+03   3.6960000e+03   3.6980000e+03   3.7550000e+03   3.7660000e+03   3.7670000e+03   3.7740000e+03   3.7520000e+03   3.7910000e+03   3.8000000e+03   3.7840000e+03   3.8050000e+03   3.8300000e+03   3.8450000e+03   3.8530000e+03   3.8540000e+03   3.8530000e+03   3.8490000e+03   3.8440000e+03   3.8400000e+03   3.8500000e+03   3.8500000e+03   3.8500000e+03   3.8500000e+03   3.8500000e+03   3.8500000e+03   3.8490000e+03   3.8480000e+03   3.8460000e+03   3.8460000e+03   3.8460000e+03   3.8490000e+03   3.8620000e+03   3.8780000e+03   3.9010000e+03   3.9370000e+03   3.9880000e+03   4.0460000e+03   4.1570000e+03   4.2650000e+03   4.3150000e+03   4.3210000e+03   4.2280000e+03   4.2180000e+03   4.0820000e+03   3.6390000e+03   3.0150000e+03   2.7590000e+03   2.3350000e+03   2.3370000e+03   2.9380000e+03   2.9270000e+03   3.0090000e+03   2.8850000e+03   1.9440000e+03   1.2960000e+03   6.9200000e+02             NaN             NaN             NaN             NaN             NaN             NaN             NaN             NaN             NaN   9.4000000e+01   9.4000000e+01   1.9100000e+02
2.3000000e+01   2.6000000e+01   3.0000000e+01   3.5000000e+01   3.9000000e+01   4.0000000e+01   4.4000000e+01   4.8000000e+01   5.3000000e+01   5.7000000e+01   5.9000000e+01   6.0000000e+01   6.3000000e+01   6.5000000e+01   6.7000000e+01   6.8000000e+01   6.8000000e+01   6.8000000e+01   6.9000000e+01   7.3000000e+01   7.9000000e+01   7.9000000e+01   7.4000000e+01   6.6000000e+01   6.0000000e+01   5.4000000e+01   4.4000000e+01   2.4000000e+01   1.4000000e+01   1.2000000e+01   8.0000000e+00   1.0000000e+00             NaN             NaN             NaN             NaN             NaN             NaN             NaN             NaN             NaN             NaN             NaN             NaN             NaN             NaN             NaN             NaN   1.0000000e+00   1.0000000e+00   1.8000000e+01   3.8000000e+01   4.0000000e+01   9.6000000e+01   9.7000000e+01   9.9000000e+01   1.0000000e+02   1.2200000e+02   1.3300000e+02   1.5000000e+02   1.4900000e+02   1.3700000e+02   1.3000000e+02   1.8500000e+02   2.4400000e+02   5.1700000e+02   6.1400000e+02   6.6600000e+02   6.3700000e+02   4.2400000e+02   5.4800000e+02   6.4700000e+02   7.0400000e+02   7.0600000e+02   7.0900000e+02   8.0300000e+02   8.6900000e+02   9.9600000e+02   1.0040000e+03   1.1010000e+03   1.1970000e+03   1.2030000e+03   1.2980000e+03   1.3930000e+03   1.3970000e+03   1.4010000e+03   1.4040000e+03   1.4550000e+03   1.4050000e+03   1.2260000e+03   1.2100000e+03   1.4170000e+03   1.6070000e+03   1.7090000e+03   1.8150000e+03   2.1050000e+03   2.2190000e+03   2.7410000e+03   3.1240000e+03   3.1900000e+03   3.4760000e+03   3.4880000e+03   3.5910000e+03   3.5910000e+03   3.6590000e+03   3.6770000e+03   3.6540000e+03   3.6570000e+03   3.6690000e+03   3.6780000e+03   3.6960000e+03   3.6920000e+03   3.6630000e+03   3.6520000e+03   3.5950000e+03   3.5970000e+03   3.5960000e+03   3.6070000e+03   3.6500000e+03   3.6430000e+03   3.6840000e+03   3.6830000e+03   3.6830000e+03   3.6080000e+03   3.6270000e+03   3.7800000e+03   3.7850000e+03   3.7810000e+03   3.8060000e+03   3.8320000e+03   3.8350000e+03   3.8420000e+03   3.8440000e+03   3.8420000e+03   3.8390000e+03   3.8370000e+03   3.8350000e+03   3.8340000e+03   3.8340000e+03   3.8340000e+03   3.8340000e+03   3.8340000e+03   3.8340000e+03   3.8350000e+03   3.8340000e+03   3.8300000e+03   3.8260000e+03   3.8230000e+03   3.8260000e+03   3.8480000e+03   3.8500000e+03   3.8760000e+03   3.9020000e+03   3.9500000e+03   3.9890000e+03   4.0440000e+03   4.1800000e+03   4.2860000e+03   4.3160000e+03   4.3050000e+03   4.2450000e+03   4.2160000e+03   4.1140000e+03   4.1050000e+03   3.1400000e+03   2.7980000e+03   2.4920000e+03   2.6850000e+03   2.7520000e+03   2.7580000e+03   2.6610000e+03   2.7430000e+03   2.2720000e+03   9.0200000e+02   1.6800000e+02   1.6100000e+02   6.8000000e+01   4.2000000e+01   4.2000000e+01             NaN             NaN   9.5000000e+01   9.5000000e+01   1.8700000e+02   1.9100000e+02   2.1500000e+02
2.4000000e+01   2.8000000e+01   3.3000000e+01   3.9000000e+01   4.0000000e+01   4.2000000e+01   4.5000000e+01   4.9000000e+01   5.4000000e+01   5.9000000e+01   5.9000000e+01   6.1000000e+01   6.3000000e+01   6.4000000e+01   6.5000000e+01   6.5000000e+01   6.4000000e+01   6.1000000e+01   6.0000000e+01   6.4000000e+01   6.9000000e+01   7.7000000e+01   6.9000000e+01   6.2000000e+01   5.8000000e+01   5.0000000e+01   4.2000000e+01   3.9000000e+01   7.0000000e+00   1.9000000e+01   8.0000000e+00   1.0000000e+00             NaN             NaN             NaN             NaN             NaN             NaN             NaN             NaN             NaN             NaN             NaN             NaN             NaN             NaN             NaN             NaN             NaN             NaN   2.0000000e+00   1.0000000e+00   2.1000000e+01   9.4000000e+01   1.0400000e+02   9.8000000e+01   9.9000000e+01   1.1300000e+02   1.2300000e+02   1.3300000e+02   1.4600000e+02   1.4600000e+02   1.7600000e+02   2.2000000e+02   2.3900000e+02   2.7100000e+02   2.4000000e+02   2.4000000e+02   2.9400000e+02   3.4000000e+02   3.5200000e+02   4.1000000e+02   4.1200000e+02   4.1300000e+02   4.1600000e+02   6.0000000e+02   6.0500000e+02   7.0200000e+02   7.9900000e+02   8.6700000e+02   9.3400000e+02   1.0000000e+03   1.0960000e+03   1.1310000e+03   1.1960000e+03   1.2010000e+03   1.2950000e+03   1.3280000e+03   1.3890000e+03   1.3020000e+03   1.2150000e+03   1.2930000e+03   1.4080000e+03   1.4180000e+03   1.7010000e+03   1.7480000e+03   2.0700000e+03   2.1240000e+03   2.9570000e+03   3.0860000e+03   3.1770000e+03   3.3270000e+03   3.4760000e+03   3.5020000e+03   3.5850000e+03   3.5840000e+03   3.6300000e+03   3.6190000e+03   3.6070000e+03   3.6040000e+03   3.6400000e+03   3.6590000e+03   3.6790000e+03   3.5880000e+03   3.5850000e+03   3.2240000e+03   3.3420000e+03   3.5810000e+03   3.5800000e+03   3.5780000e+03   3.3970000e+03   3.3950000e+03   3.3950000e+03   3.3980000e+03   3.4020000e+03   3.4680000e+03   3.5960000e+03   3.6940000e+03   3.7910000e+03   3.7930000e+03   3.8470000e+03   3.8400000e+03   3.8350000e+03   3.8290000e+03   3.8240000e+03   3.8210000e+03   3.8190000e+03   3.8190000e+03   3.8190000e+03   3.8180000e+03   3.8180000e+03   3.8180000e+03   3.8170000e+03   3.8170000e+03   3.8160000e+03   3.8120000e+03   3.8020000e+03   3.8010000e+03   3.8010000e+03   3.8010000e+03   3.8220000e+03   3.8490000e+03   3.8980000e+03   3.9020000e+03   3.9450000e+03   4.0170000e+03   4.0370000e+03   4.1510000e+03   4.1960000e+03   4.1650000e+03   4.0700000e+03   4.1600000e+03   4.0710000e+03   4.0600000e+03   4.0490000e+03   3.0810000e+03   2.8380000e+03   2.6370000e+03   2.3560000e+03   2.5860000e+03   2.8140000e+03   2.7710000e+03   2.8000000e+03   1.5900000e+03   9.8100000e+02   9.7300000e+02   2.4300000e+02   1.7100000e+02   2.2000000e+02   2.1200000e+02   2.0900000e+02   1.3300000e+02   1.9300000e+02   1.8000000e+02   1.7500000e+02   1.8800000e+02
